ply
format ascii 1.0
comment VCGLIB generated
element vertex 876
property float x
property float y
property float z
property float nx
property float ny
property float nz
element face 0
property list uchar int vertex_indices
end_header
0.0822395 0.244042 0.595 0.500237 0.584697 -0.638664 
0.0833119 0.244452 0.596 0.439097 0.639066 -0.631498 
0.0845288 0.245273 0.598 0.38107 0.679863 -0.626556 
0.0856091 0.245683 0.599 0.302673 0.669645 -0.678207 
-0.043698 0.254395 0.538 -0.00934792 -0.7235 -0.690261 
0.088721 0.246503 0.601 0.469902 0.593363 -0.653539 
0.0935664 0.249374 0.608 0.764161 0.30864 -0.566391 
0.102381 0.254706 0.621 0.567935 0.494734 -0.65779 
0.0999076 0.304596 0.606 0.504181 -0.543948 -0.670763 
0.105809 0.255937 0.624 0.475314 0.475278 -0.740397 
0.106959 0.256347 0.625 0.474768 0.474796 -0.741056 
0.108111 0.256757 0.626 0.524938 0.463187 -0.714071 
0.109266 0.257167 0.627 0.582706 0.43452 -0.686765 
-0.0247091 0.245789 0.547 -0.000135792 -0.925896 -0.377778 
0.0997808 0.29361 0.623 0.84104 0.0242132 -0.540432 
0.0685092 0.312063 0.552 0.710901 0.000159942 -0.703292 
0.0935866 0.257293 0.602 0.368273 0.21233 -0.905147 
0.0665105 0.293936 0.557 0.691868 -0.331579 -0.641384 
0.0716366 0.282927 0.57 0.64242 -0.590097 -0.48896 
-0.0302616 0.251488 0.539 0.226921 -0.731157 -0.643364 
-0.0305294 0.265064 0.529 -1.34565e-010 8.07727e-010 -1 
0.0806069 0.320615 0.564 0.783989 -0.169278 -0.597249 
-0.0499697 0.223154 0.542 -0.0955351 0.303208 -0.948123 
-0.0482706 0.223154 0.542 0.0112235 0.448466 -0.89373 
-0.047421 0.223154 0.542 0.0112757 0.448451 -0.893736 
-0.0440229 0.223154 0.542 -0.159069 0.4513 -0.878081 
-0.0422457 0.222742 0.541 -0.0511082 0.366699 -0.928935 
-0.0405497 0.222742 0.541 0.101473 0.347298 -0.932249 
-0.038076 0.223154 0.542 0.101661 0.34685 -0.932395 
-0.0372265 0.223154 0.542 -0.00354165 0.281901 -0.959437 
-0.028784 0.223565 0.543 0.101142 0.365314 -0.925373 
-0.0253795 0.223565 0.543 -0.158913 0.481426 -0.86196 
-0.0202355 0.223154 0.542 0.111396 -0.165825 -0.979843 
0.0273393 0.282622 0.542 0.45629 -0.561607 -0.690215 
-0.0193859 0.223154 0.542 0.216039 -0.438046 -0.872607 
-0.0118483 0.225212 0.547 0.276044 0.305624 -0.911259 
-0.00931005 0.226036 0.549 0.357838 0.449118 -0.818685 
-0.00760284 0.226447 0.55 0.460785 0.310369 -0.831473 
-0.00244356 0.227682 0.553 0.323919 0.332763 -0.885633 
-0.00157962 0.228094 0.554 0.15599 0.450705 -0.878938 
-0.000711265 0.228094 0.554 0.273102 0.446988 -0.851832 
0.000157093 0.228094 0.554 0.353554 0.385342 -0.852357 
0.0010273 0.228506 0.555 0.155828 0.449833 -0.879413 
0.0369862 0.256574 0.573 0.543077 -0.454869 -0.705805 
0.00189723 0.228506 0.555 0.13748 0.368921 -0.919237 
0.0071296 0.228918 0.556 3.41527e-005 0.614776 -0.788702 
0.00887259 0.228918 0.556 0.198352 0.521954 -0.82959 
0.00976161 0.229329 0.557 0.35596 0.430951 -0.829201 
0.0106347 0.229329 0.557 0.401468 0.462385 -0.790584 
0.012403 0.229741 0.558 0.38161 0.479897 -0.789983 
0.0231858 0.232623 0.565 0.0151035 0.584609 -0.811174 
0.024957 0.232623 0.565 0.0444791 0.537662 -0.841986 
0.0258426 0.232623 0.565 -0.0132541 0.498466 -0.866808 
0.0338729 0.233035 0.566 0.581844 -0.670405 -0.460451 
0.0404371 0.235093 0.571 5.65429e-005 -0.900476 -0.434907 
0.0449908 0.235505 0.572 0.373739 -0.683207 -0.627333 
0.0467021 0.235093 0.571 0.246894 -0.697188 -0.673032 
0.0476805 0.235505 0.572 0.530903 -0.558694 -0.637184 
0.0561395 0.237152 0.576 0.161958 -0.158043 -0.97406 
0.0570423 0.237152 0.576 0.241453 -0.298504 -0.923361 
0.0673224 0.238387 0.579 0.470779 -0.00164795 -0.882249 
0.108926 0.312467 0.614 0.951103 -0.217912 -0.218902 
0.0723566 0.240034 0.583 0.597108 0.374754 -0.70924 
0.0756133 0.241681 0.587 0.628315 0.453652 -0.631996 
0.0766637 0.242093 0.588 0.614986 0.424089 -0.664787 
0.0813069 0.244975 0.595 0.528432 0.556308 -0.641312 
0.0848115 0.247033 0.6 0.379227 0.632061 -0.675785 
0.0890162 0.248269 0.603 0.390497 0.550575 -0.737821 
0.0912081 0.249092 0.605 0.604256 0.3303 -0.725104 
0.0935664 0.250327 0.608 0.793726 0.058755 -0.605431 
0.102545 0.256091 0.622 0.634627 0.35892 -0.684415 
0.103687 0.256503 0.623 0.513203 0.432202 -0.741502 
0.105979 0.257326 0.625 0.474718 0.474817 -0.741075 
0.108284 0.25815 0.627 0.584081 0.404774 -0.703568 
0.0143044 0.237516 0.564 0.71525 -0.0550516 -0.696697 
0.0916994 0.257293 0.602 -0.558891 -0.182685 -0.808868 
0.0336933 0.260039 0.563 0.288301 -0.938064 -0.192143 
-0.00157392 0.244575 0.552 0.528793 -0.247931 -0.811732 
0.0173634 0.295668 0.523 -0.456066 -0.267559 -0.848773 
0.0848889 0.323457 0.569 0.740647 0.10422 -0.663763 
-0.0499697 0.224003 0.542 0.0124246 0.285409 -0.958325 
-0.047421 0.224003 0.542 0.0112938 0.447831 -0.894047 
-0.0465715 0.224003 0.542 0.0113452 0.447816 -0.894054 
-0.0367125 0.233786 0.547 -0.405232 0.238672 -0.88251 
-0.0414742 0.224003 0.542 -5.30695e-005 0.620948 -0.783852 
-0.0290348 0.259896 0.532 0.46434 -0.65811 -0.592688 
-0.0406247 0.224003 0.542 -5.30734e-005 0.620948 -0.783852 
-0.038076 0.224003 0.542 1.28306e-010 1.64103e-009 -1 
-0.0372265 0.224003 0.542 -1.28306e-010 1.64103e-009 -1 
-0.0329787 0.224003 0.542 0.27815 0.311592 -0.908594 
-0.0321884 0.224416 0.543 0.15699 0.460818 -0.873499 
-0.0304862 0.224416 0.543 0.174108 0.523429 -0.834091 
-0.0296897 0.22483 0.544 0.109911 0.411434 -0.904788 
-0.0262789 0.22483 0.544 -0.0484144 0.365326 -0.92962 
-0.0254263 0.22483 0.544 -0.204355 0.401602 -0.892723 
-0.0245284 0.224416 0.543 -0.430129 0.375924 -0.820774 
-0.0236773 0.224416 0.543 -0.35856 0.43356 -0.826716 
-0.0219346 0.224003 0.542 0.039607 0.216656 -0.975444 
-0.0202355 0.224003 0.542 0.103454 0.345005 -0.932882 
-0.0366454 0.231647 0.546 -0.262018 0.36962 -0.891475 
-0.0193859 0.224003 0.542 0.293004 0.251589 -0.922416 
-0.0185706 0.224416 0.543 0.500084 0.295242 -0.814093 
-0.0135631 0.22607 0.547 0.3373 0.302184 -0.891579 
-0.0110311 0.226896 0.549 0.252194 0.452742 -0.855232 
-0.00931005 0.226896 0.549 0.286487 0.45729 -0.841909 
0.00276715 0.229376 0.555 0.200358 0.398525 -0.895005 
0.00538662 0.229789 0.556 0.198065 0.522316 -0.829431 
0.00626937 0.230202 0.557 0.155521 0.447965 -0.880421 
0.00714243 0.230202 0.557 0.108475 0.530616 -0.840643 
0.00888855 0.230202 0.557 0.170841 0.573831 -0.800956 
0.00976161 0.230202 0.557 0.335185 0.516319 -0.788078 
0.011549 0.231029 0.559 0.28176 0.544278 -0.790173 
0.0142284 0.231856 0.561 0.372936 0.589583 -0.716457 
0.020529 0.233509 0.565 0.164451 0.55928 -0.812504 
0.0223397 0.233922 0.566 0.0794883 0.470169 -0.87899 
0.024114 0.233922 0.566 0.0109386 0.500456 -0.865693 
0.024957 0.233509 0.565 0.0110923 0.500515 -0.865657 
0.0276138 0.233509 0.565 -0.299294 0.472838 -0.828762 
0.028449 0.233095 0.564 -0.153242 0.447775 -0.880917 
0.029333 0.233095 0.564 -0.172366 0.289069 -0.941663 
0.0311562 0.233509 0.565 0.196743 -0.268577 -0.942952 
0.0319851 0.233095 0.564 0.424431 -0.239967 -0.873083 
0.033813 0.233509 0.565 0.181074 -0.524803 -0.831741 
0.0357102 0.234335 0.567 0.576442 -0.697116 -0.426315 
0.0366634 0.234749 0.568 0.52231 -0.69948 -0.487771 
0.0385117 0.235162 0.569 0.485343 -0.710004 -0.510231 
-0.0262789 0.235062 0.544 0.347961 0.333243 -0.876283 
0.0403663 0.235575 0.57 0.0828435 -0.825519 -0.558261 
0.0412597 0.235575 0.57 0.199251 -0.778865 -0.594701 
0.0430466 0.235575 0.57 0.217765 -0.665716 -0.713723 
0.0449121 0.235988 0.571 0.199486 -0.777056 -0.596983 
0.0458071 0.235988 0.571 -0.199882 -0.774896 -0.599653 
0.0467021 0.235988 0.571 0.246894 -0.697188 -0.673032 
0.0504583 0.236815 0.573 0.54897 -0.360729 -0.753994 
0.0532455 0.237228 0.574 0.550709 -0.400186 -0.73251 
0.0882171 0.258148 0.604 -0.204651 -0.412396 -0.88772 
0.0570423 0.238055 0.576 9.08186e-011 1.70194e-009 -1 
0.0579452 0.238055 0.576 0.386552 -0.153114 -0.909469 
0.0589502 0.238468 0.577 0.491992 -0.149277 -0.857706 
0.0608643 0.238881 0.578 0.485341 -0.227589 -0.844184 
0.0636923 0.239295 0.579 0.426575 0.173708 -0.887614 
0.0645998 0.239295 0.579 0.280358 -0.0286811 -0.959467 
0.0693763 0.240121 0.581 0.572219 0.193037 -0.797058 
0.070287 0.240121 0.581 0.522083 0.298455 -0.79897 
-0.0228924 0.272112 0.525 0.0279443 -0.882858 -0.468809 
0.0724807 0.241361 0.584 0.621109 0.387444 -0.681257 
0.0746932 0.242601 0.587 0.604132 0.460897 -0.650075 
0.0769245 0.243841 0.59 0.641611 0.441462 -0.627253 
0.0791746 0.245081 0.593 0.64825 0.482385 -0.589132 
0.0871259 0.249214 0.603 0.306069 0.655684 -0.690218 
0.0891639 0.249627 0.604 0.227631 0.543548 -0.807923 
0.0901106 0.249627 0.604 0.333774 0.485404 -0.80807 
0.0913588 0.250454 0.606 0.563168 0.210045 -0.799201 
0.0935664 0.25128 0.608 0.814147 -0.0173498 -0.580399 
0.101407 0.256653 0.621 0.742406 0.185922 -0.643635 
0.10271 0.25748 0.623 0.661142 0.294378 -0.690096 
0.108456 0.259546 0.628 0.589836 0.322018 -0.740539 
0.0567426 0.291231 0.547 0.695916 -0.458647 -0.55258 
0.109615 0.259959 0.629 0.648143 0.288629 -0.704701 
-0.0260843 0.272714 0.523 0.0115877 -0.87116 -0.490863 
0.0310042 0.290749 0.532 0.45646 0.342083 -0.821354 
0.000153123 0.264651 0.54 -0.333171 -0.900679 -0.278881 
0.00979666 0.232781 0.559 0.198819 0.580179 -0.78985 
0.0538978 0.285757 0.553 0.349578 -0.83886 -0.417263 
-0.00329838 0.243268 0.551 0.215785 -0.757979 -0.615553 
0.000960666 0.290966 0.519 0.290561 -0.479998 -0.827754 
0.101024 0.304147 0.607 0.598812 -0.64054 -0.480763 
0.0999594 0.32145 0.595 0.850987 -0.103056 -0.514976 
0.10268 0.337318 0.6 0.892874 0.11753 -0.434698 
0.0443302 0.292817 0.542 0.266817 0.294994 -0.91749 
-0.0274184 0.257878 0.533 0.259444 -0.33764 -0.904814 
0.104854 0.285781 0.636 0.782773 -0.116885 -0.611232 
-0.0481232 0.26024 0.531 -0.0168068 -0.217414 -0.975935 
-0.0458063 0.225267 0.543 -6.96757e-005 0.619915 -0.784669 
-0.0424018 0.225267 0.543 -6.97014e-005 0.619915 -0.784669 
-0.038076 0.224853 0.542 -0.0502995 0.36585 -0.929313 
-0.0363769 0.224853 0.542 0.101669 0.346102 -0.932672 
-0.0338283 0.224853 0.542 0.109122 0.412461 -0.904416 
-0.0262789 0.225682 0.544 -6.36433e-011 -2.03692e-010 -1 
0.0512975 0.284891 0.553 0.239122 -0.71186 -0.660361 
-0.0254263 0.225682 0.544 -0.13777 0.233388 -0.962574 
-0.0236773 0.225267 0.543 -0.326463 0.455432 -0.828253 
0.0818431 0.29284 0.579 0.657127 -0.197403 -0.727473 
-0.0202728 0.225267 0.543 0.108637 0.540474 -0.834318 
-0.0185706 0.225267 0.543 0.200328 0.532914 -0.822114 
-0.0177521 0.225682 0.544 0.304948 0.4811 -0.821918 
-0.0160762 0.226097 0.545 0.522931 0.334004 -0.78421 
-0.0144205 0.226927 0.547 0.522138 0.340761 -0.781827 
-0.0118916 0.227757 0.549 0.324355 0.474493 -0.818321 
-0.0110311 0.227757 0.549 0.274558 0.45116 -0.84916 
-0.0101706 0.227757 0.549 0.156308 0.453432 -0.877478 
-0.00846492 0.228171 0.55 0.422657 0.430281 -0.797634 
-0.00761666 0.228586 0.551 0.339277 0.504453 -0.793989 
-0.006753 0.228586 0.551 0.460126 0.469197 -0.753749 
-0.00590004 0.229001 0.552 0.390695 0.375746 -0.840341 
-0.00503481 0.229001 0.552 0.464806 0.332376 -0.820659 
-0.00417714 0.229416 0.553 0.497732 0.306765 -0.811269 
-0.00331634 0.229831 0.554 0.383794 0.415989 -0.824412 
-0.00244798 0.229831 0.554 0.293065 0.445778 -0.84581 
-0.00158247 0.230246 0.555 0.155554 0.449689 -0.879536 
0.00102915 0.230661 0.556 0.155401 0.448843 -0.879995 
0.00190065 0.230661 0.556 0.10819 0.531195 -0.840314 
0.00714243 0.231075 0.557 0.158045 0.513436 -0.843448 
0.011549 0.231905 0.559 0.28543 0.523133 -0.803033 
0.0151346 0.23315 0.562 0.364188 0.524746 -0.769421 
0.0169265 0.233565 0.563 0.363657 0.523843 -0.770287 
0.0178406 0.233979 0.564 0.372243 0.506544 -0.77772 
0.0196434 0.234394 0.565 0.313895 0.487027 -0.81503 
0.0232268 0.234809 0.566 -0.00209871 0.534659 -0.845065 
0.0267755 0.234809 0.566 -0.282143 0.452244 -0.846091 
0.0319851 0.233979 0.564 0.281243 -0.389739 -0.87693 
0.0329274 0.234394 0.565 0.333539 -0.366635 -0.868522 
0.0394036 0.236054 0.569 0.404887 -0.693238 -0.596228 
0.0411873 0.236054 0.569 0.375703 -0.687428 -0.621522 
0.0475971 0.236883 0.571 0.566862 -0.489323 -0.662745 
0.0484922 0.236883 0.571 0.523589 -0.524905 -0.671066 
0.0513564 0.237713 0.573 0.409624 -0.513639 -0.753912 
0.0522546 0.237713 0.573 0.531488 -0.445362 -0.720537 
0.0541452 0.238128 0.574 0.610804 -0.269587 -0.744473 
0.0570423 0.238958 0.576 0.222616 -0.061552 -0.972961 
0.0579452 0.238958 0.576 0.403547 -0.128101 -0.905947 
0.0598546 0.239373 0.577 0.425097 -0.194113 -0.884089 
0.0617703 0.239787 0.578 0.401871 -0.127616 -0.90676 
0.0626763 0.239787 0.578 0.280912 -0.0287903 -0.959302 
0.0655073 0.240202 0.579 -0 -0 -1 
0.0664149 0.240202 0.579 -0 -0 -1 
0.0693763 0.241032 0.581 0.555263 0.26376 -0.788742 
0.0181484 0.298375 0.522 -0.0242827 -0.614043 -0.788899 
0.0714428 0.241862 0.583 0.643597 0.337237 -0.687062 
0.0770549 0.245181 0.591 0.659081 0.447829 -0.604204 
0.0782451 0.24601 0.593 0.676445 0.453078 -0.58064 
0.0806444 0.24767 0.597 0.613206 0.53762 -0.578743 
0.0863237 0.250574 0.604 0.352564 0.555609 -0.752992 
0.0999486 0.256382 0.618 0.812432 -0.133035 -0.567676 
0.10402 0.259286 0.625 0.61093 0.44236 -0.656569 
0.107301 0.260115 0.627 0.440927 0.423653 -0.791265 
0.109789 0.26136 0.63 0.431834 0.205299 -0.878278 
0.0848889 0.302052 0.569 0.80871 -0.498578 -0.312103 
0.0727289 0.244943 0.586 0.705566 0.382477 -0.596564 
-0.016216 0.279557 0.522 0.489628 -0.408348 -0.7704 
-0.0492108 0.226119 0.543 0.0991595 0.5138 -0.85216 
-0.0458907 0.226535 0.544 0.0830436 0.591072 -0.802332 
-0.0433326 0.226535 0.544 0.0121029 0.57877 -0.815401 
-0.0398485 0.226119 0.543 -0.200298 0.521909 -0.829151 
-0.0389974 0.226119 0.543 -0.0856975 0.584861 -0.806594 
-0.0381463 0.226119 0.543 -5.15418e-005 0.619447 -0.785038 
-0.0347418 0.226119 0.543 -0.00165713 0.595666 -0.803231 
-0.0338907 0.226119 0.543 0.0284236 0.550054 -0.834645 
-0.031395 0.226535 0.544 0.0983102 0.242249 -0.965221 
-0.0305424 0.226535 0.544 7.29755e-011 1.3633e-009 -1 
-0.0296897 0.226535 0.544 1.79674e-018 3.81634e-010 -1 
-0.028837 0.226535 0.544 7.63463e-011 3.81634e-010 -1 
-0.0254263 0.226535 0.544 1.30185e-010 1.06507e-009 -1 
-0.0245736 0.226535 0.544 -0.123884 0.20469 -0.970956 
-0.0237209 0.226535 0.544 -0.177947 0.325032 -0.928811 
-0.0228682 0.226535 0.544 -0.154289 0.43282 -0.888179 
-0.0235029 0.254023 0.539 0.466968 -0.548463 -0.693635 
-0.021975 0.226119 0.543 -0.125444 0.55207 -0.824307 
-0.0194575 0.226535 0.544 0.166142 0.59164 -0.788897 
-0.0186048 0.226535 0.544 0.196061 0.569396 -0.798341 
-0.0169305 0.226951 0.545 0.308439 0.531428 -0.788955 
-0.0118916 0.228617 0.549 0.320782 0.519536 -0.791948 
-0.0024524 0.231116 0.555 0.197639 0.528184 -0.825809 
-0.000712549 0.231116 0.555 0.219796 0.426548 -0.877352 
0.00277712 0.231949 0.557 0.219273 0.572197 -0.79026 
0.00365019 0.231949 0.557 0.287143 0.587329 -0.7567 
0.00540599 0.232365 0.558 0.114566 0.597615 -0.793556 
0.00628062 0.232365 0.558 0.0755432 0.627901 -0.774619 
0.00804427 0.232781 0.559 0.170264 0.571791 -0.802537 
0.0106919 0.233198 0.56 0.169357 0.609112 -0.774791 
0.0115697 0.233198 0.56 0.369524 0.568351 -0.735139 
0.0124697 0.233614 0.561 0.362839 0.558222 -0.746147 
0.0133728 0.234031 0.562 0.364058 0.524547 -0.769618 
0.0151615 0.234447 0.563 0.358688 0.551207 -0.753335 
0.0160725 0.234863 0.564 0.332056 0.571999 -0.750037 
0.0169565 0.234863 0.564 0.332056 0.571999 -0.750037 
0.0187578 0.23528 0.565 0.377434 0.474456 -0.795258 
0.029385 0.23528 0.565 -0.394587 0.090566 -0.914384 
0.0319851 0.234863 0.564 0.225526 -0.0628314 -0.972209 
0.0337532 0.234863 0.564 0.286682 -0.437905 -0.852087 
0.0346986 0.23528 0.565 0.575461 -0.157701 -0.802481 
0.0355842 0.23528 0.565 0.521316 -0.124715 -0.844202 
0.0365344 0.235696 0.566 0.753293 -0.376011 -0.539598 
0.0411873 0.236946 0.569 0.417945 -0.583102 -0.696645 
0.0420792 0.236946 0.569 0.213494 -0.757987 -0.61634 
0.0447548 0.236946 0.569 0.218583 -0.667588 -0.711722 
0.0457269 0.237362 0.57 0.0128432 -0.721784 -0.691999 
0.0493872 0.237778 0.571 0.636519 -0.36078 -0.681676 
0.0512668 0.238195 0.572 0.328772 -0.357892 -0.873969 
0.0522546 0.238611 0.573 0.634958 -0.203505 -0.745261 
0.0579452 0.239861 0.576 0.222959 -0.061653 -0.972876 
0.058848 0.239861 0.576 0.393525 -0.262801 -0.880951 
0.0598546 0.240277 0.577 0.544117 0.0257016 -0.838616 
0.0617703 0.240693 0.578 0.28864 0.0555896 -0.955822 
0.00808744 0.241078 0.562 0.575427 -0.379932 -0.724248 
0.0645998 0.24111 0.579 -0 -0 -1 
0.0726048 0.243608 0.585 0.710041 0.330141 -0.621972 
0.0737731 0.244441 0.587 0.701728 0.392216 -0.594764 
0.0749477 0.245274 0.589 0.653965 0.421912 -0.627949 
0.0759997 0.245691 0.59 0.64832 0.383828 -0.657539 
0.0783771 0.247356 0.594 0.711305 0.399726 -0.578156 
0.0946748 0.253603 0.609 0.722724 -0.504076 -0.472839 
0.0970597 0.254852 0.612 0.801028 -0.543104 -0.251776 
0.101244 0.258183 0.62 0.8787 -0.00263201 -0.477368 
0.0719329 0.254562 0.587 0.805833 -0.0262027 -0.591563 
0.0994605 0.283908 0.621 0.509636 -0.852337 -0.117438 
0.0495187 0.294208 0.543 -0.478474 -0.407055 -0.778055 
0.0187578 0.241479 0.565 0.369855 -0.760525 -0.533675 
0.0311562 0.258306 0.565 0.541059 -0.541687 -0.643296 
0.0084896 0.27157 0.532 0.594051 -0.494645 -0.634373 
0.0554765 0.296761 0.543 0.570167 0.0183134 -0.821324 
-0.0308756 0.255492 0.535 -0.305158 -0.625553 -0.718026 
0.0509778 0.270458 0.559 0.537786 -0.760809 -0.363258 
0.104159 0.270817 0.62 0.499817 0.616741 -0.608123 
0.0216687 0.257014 0.549 0.298851 -0.518429 -0.801199 
0.0553326 0.261983 0.577 0.395052 0.0927935 -0.91396 
-0.0384946 0.25933 0.536 -0.423592 -0.680003 -0.598469 
0.0168916 0.274265 0.534 0.28089 0.0333109 -0.959162 
0.0248832 0.291593 0.526 0.681998 -0.291076 -0.670935 
-0.0467433 0.227388 0.544 0.201355 0.540927 -0.816611 
-0.0451208 0.227806 0.545 0.179672 0.590668 -0.786657 
-0.0442665 0.227806 0.545 -0.0480295 0.639217 -0.767525 
-0.0417038 0.227806 0.545 -0.220188 0.569982 -0.791605 
-0.0390692 0.227388 0.544 -5.42348e-005 0.618546 -0.785748 
-0.0365111 0.227388 0.544 -0.0270687 0.498204 -0.866637 
-0.0305424 0.227388 0.544 -5.08929e-011 8.90999e-010 -1 
-0.028837 0.227388 0.544 -0.00894195 -0.216807 -0.976173 
-0.0279843 0.227388 0.544 -7.63462e-011 8.90999e-010 -1 
-0.0271316 0.227388 0.544 -2.83435e-018 8.90999e-010 -1 
-0.0245736 0.227388 0.544 2.0463e-011 5.34441e-010 -1 
-0.0220155 0.227388 0.544 -0.00280619 0.566053 -0.824364 
-0.0211628 0.227388 0.544 -0.000139838 0.618493 -0.78579 
-0.0203102 0.227388 0.544 0.165835 0.591419 -0.789128 
-0.018639 0.227806 0.545 0.220832 0.570535 -0.791027 
-0.0177847 0.227806 0.545 0.255562 0.618048 -0.743441 
-0.0161057 0.228224 0.546 0.511804 0.457526 -0.727136 
-0.0152778 0.228642 0.547 0.421319 0.59485 -0.684575 
-0.0127754 0.229896 0.55 0.411898 0.58609 -0.697738 
-0.0110713 0.230314 0.551 0.208321 0.594225 -0.776852 
-0.0102076 0.230314 0.551 0.0752524 0.632024 -0.771286 
-0.0119349 0.242405 0.551 0.214847 -0.759037 -0.614576 
-0.00936093 0.230732 0.552 0.319228 0.516927 -0.794279 
-0.00849571 0.230732 0.552 0.340313 0.576023 -0.743225 
-0.00764431 0.23115 0.553 0.342012 0.537494 -0.770797 
-0.00505306 0.231568 0.554 0.328487 0.509161 -0.795519 
0.001031 0.232822 0.557 0.165363 0.564703 -0.808558 
0.00190406 0.232822 0.557 0.260855 0.582654 -0.76972 
0.00365674 0.23324 0.558 0.271608 0.554182 -0.786837 
-0.039141 0.22866 0.545 -0.0413214 0.579542 -0.813894 
0.00629188 0.233658 0.559 0.152663 0.532211 -0.832734 
0.0115904 0.234494 0.561 0.259531 0.578786 -0.773079 
0.0142791 0.23533 0.563 0.42028 0.449549 -0.788207 
0.0151885 0.235748 0.564 0.467583 0.476749 -0.744363 
0.0179038 0.236584 0.566 0.376316 0.427077 -0.822187 
0.0233089 0.23742 0.568 0.00412783 0.372045 -0.928205 
0.0268228 0.237002 0.567 -0.284792 0.312341 -0.906276 
0.030217 0.235748 0.564 -0.388451 0.20327 -0.89877 
0.0337532 0.235748 0.564 0.509149 -0.154655 -0.84667 
0.0346986 0.236166 0.565 0.490421 -0.00102693 -0.871485 
0.0393344 0.23742 0.568 0.236625 -0.494615 -0.83628 
0.0456467 0.237837 0.569 0.273189 -0.573794 -0.772093 
0.0484072 0.238256 0.57 0.538658 -0.463079 -0.703851 
0.0512668 0.239091 0.572 0.435305 -0.291003 -0.851955 
0.0522546 0.239509 0.573 0.650173 0.0543438 -0.75784 
0.056042 0.240345 0.575 0.519575 0.0330437 -0.853786 
-0.00393543 0.285554 0.521 0.307574 -0.796315 -0.520846 
0.0598546 0.241181 0.577 0.529963 0.272474 -0.803055 
0.0626763 0.241599 0.578 0.385143 0.223752 -0.895321 
0.0645998 0.242017 0.579 0.190525 0.154813 -0.969398 
0.0655073 0.242017 0.579 0.261832 0.279775 -0.923672 
0.0665296 0.242435 0.58 0.339321 0.407344 -0.847899 
0.0674387 0.242435 0.58 0.404818 0.351974 -0.843941 
0.0761285 0.247033 0.591 0.68477 0.325994 -0.651781 
0.0773157 0.247869 0.593 0.782371 0.265263 -0.563498 
0.0798422 0.249959 0.598 0.774816 0.351493 -0.525465 
0.0832071 0.251631 0.602 0.662585 0.301944 -0.685428 
0.0844302 0.252467 0.604 0.646179 0.365784 -0.669818 
0.0875594 0.253303 0.606 0.276834 0.310244 -0.909457 
0.090409 0.253303 0.606 0.019466 -0.192936 -0.981018 
0.0913588 0.253303 0.606 0.019669 -0.192922 -0.981017 
-0.00069971 0.255996 0.545 -0.206994 -0.828534 -0.520274 
0.0923087 0.253303 0.606 0.424709 -0.341969 -0.838259 
0.098019 0.255811 0.612 0.743101 -0.629185 -0.227877 
0.106657 0.262917 0.629 0.381968 0.167478 -0.908874 
0.00542537 0.235831 0.56 0.297471 0.4665 -0.833 
0.109789 0.263335 0.63 0.493963 0.0216698 -0.869213 
0.0194753 0.272772 0.536 0.270616 -0.325546 -0.905973 
-0.00506218 0.240685 0.555 0.431509 -0.55052 -0.714652 
0.00258766 0.290153 0.519 0.334143 -0.572661 -0.748604 
0.109948 0.337605 0.609 0.679922 0.320555 -0.659507 
0.0567243 0.252394 0.582 0.438194 0.0707354 -0.896093 
-0.0185275 0.285534 0.518 0.275671 -0.582183 -0.764898 
-0.0434919 0.229079 0.546 -0.00154515 0.593239 -0.805025 
-0.0426361 0.229079 0.546 -0.0401901 0.574482 -0.81753 
-0.0408495 0.22866 0.545 -0.204401 0.600398 -0.773138 
-0.0399953 0.22866 0.545 0.000135307 0.617588 -0.786502 
-0.0382868 0.22866 0.545 -0.110776 0.532428 -0.839195 
-0.0374325 0.22866 0.545 -0.157828 0.449359 -0.879299 
-0.0365111 0.22824 0.544 -0.157767 0.449497 -0.879239 
-0.0356585 0.22824 0.544 -0.0550764 0.458481 -0.886996 
-0.0305424 0.22824 0.544 -0.0094848 -0.216693 -0.976194 
-0.0279843 0.22824 0.544 0.245603 -0.331688 -0.910858 
0.056237 0.261078 0.577 0.341218 0.271657 -0.899874 
-0.0271316 0.22824 0.544 -0.00842661 -0.216721 -0.976197 
-0.0348332 0.282018 0.519 -0.0113619 -0.623783 -0.781515 
-0.0262789 0.22824 0.544 -0.0582766 -0.15599 -0.986038 
-0.0228682 0.22824 0.544 0.135806 0.307599 -0.941775 
-0.0212017 0.22866 0.545 0.0835903 0.588006 -0.804525 
-0.0203475 0.22866 0.545 0.149822 0.592646 -0.791406 
-0.0194932 0.22866 0.545 0.201951 0.588714 -0.782708 
-0.0186732 0.229079 0.546 0.297498 0.640891 -0.70764 
-0.0170237 0.229919 0.548 0.34038 0.628507 -0.699372 
-0.0136375 0.230758 0.55 0.373257 0.543025 -0.752199 
-0.0119349 0.231177 0.551 0.30175 0.475101 -0.826575 
-0.0085111 0.232016 0.553 0.413426 0.485588 -0.770249 
-0.00678977 0.232436 0.554 0.317821 0.428069 -0.846018 
-0.00158818 0.233695 0.557 0.083372 0.580369 -0.810074 
0.00453949 0.234534 0.559 0.192734 0.375114 -0.906721 
0.00630313 0.234953 0.56 0.292139 0.493099 -0.819456 
0.00983171 0.235373 0.561 0.281399 0.44565 -0.84983 
0.0107301 0.235792 0.562 0.240043 0.417478 -0.876408 
0.0143044 0.236632 0.564 0.646924 0.203057 -0.735021 
0.0170167 0.237471 0.566 0.540244 0.0361766 -0.84073 
0.0197129 0.23789 0.567 0.475074 0.276241 -0.835461 
0.0224186 0.23831 0.568 -3.52456e-011 -1.24893e-009 -1 
0.0241992 0.23831 0.568 -7.30088e-011 1.52905e-009 -1 
0.0259798 0.23831 0.568 -0.465792 -0.0224602 -0.884609 
0.0268228 0.23789 0.567 -0.570883 0.0746557 -0.81763 
0.0277116 0.23789 0.567 -0.559228 0.00599972 -0.828992 
0.0302706 0.237051 0.565 -0.364279 0.101146 -0.925781 
0.0311562 0.237051 0.565 -0.388038 0.203892 -0.898807 
0.0319851 0.236632 0.564 -0.208846 0.0177805 -0.977787 
0.0365344 0.237471 0.566 0.629656 -0.204655 -0.749433 
0.0374215 0.237471 0.566 0.421863 -0.359499 -0.832341 
0.041115 0.23831 0.568 0.219423 -0.670265 -0.708941 
0.0420053 0.23831 0.568 0.00779352 -0.673616 -0.73904 
0.0428956 0.23831 0.568 0.414574 -0.520736 -0.746299 
0.0455665 0.23831 0.568 0.226594 -0.665851 -0.710843 
0.0465386 0.238729 0.569 0.443299 -0.505178 -0.74046 
0.0484072 0.239149 0.57 0.601179 -0.260483 -0.755468 
0.0522546 0.240408 0.573 0.644859 0.105059 -0.757047 
0.0542395 0.241247 0.575 0.536878 0.225359 -0.813004 
0.0589502 0.242086 0.577 0.317822 0.483881 -0.815382 
0.0599583 0.242505 0.578 0.33775 0.402083 -0.851031 
0.0636923 0.242925 0.579 0.339626 0.224703 -0.913325 
0.0645998 0.242925 0.579 0.261738 0.279812 -0.923687 
0.0665296 0.243345 0.58 0.338888 0.407015 -0.84823 
0.0761285 0.24796 0.591 0.667899 0.275173 -0.691514 
0.0773157 0.248799 0.593 0.7594 0.313083 -0.570343 
0.0833453 0.252994 0.603 0.743748 0.21676 -0.632341 
0.0875594 0.254253 0.606 0.221274 -0.107909 -0.969223 
0.0923087 0.254253 0.606 0.0809752 -0.748755 -0.657882 
-0.00757519 0.24538 0.548 0.496905 -0.3758 -0.782215 
0.0943639 0.254673 0.607 0.556391 -0.768382 -0.316256 
0.0954724 0.255092 0.608 0.5865 -0.745281 -0.317135 
0.0965839 0.255512 0.609 0.621581 -0.697489 -0.356576 
0.0797228 0.299398 0.564 0.553825 -0.569221 -0.607672 
0.0222394 0.298375 0.522 0.406301 -0.29878 -0.86351 
-0.0452863 0.230356 0.547 0.210194 0.393568 -0.894943 
-0.0434919 0.229935 0.546 0.000322556 0.466921 -0.884299 
-0.0400686 0.229935 0.546 -0.115784 0.598573 -0.792656 
-0.0331004 0.229093 0.544 -8.01237e-019 -1.14489e-009 -1 
-0.0104082 0.288782 0.518 -1.75436e-011 4.49028e-009 -1 
-0.0355715 0.260581 0.53 -0.567545 -0.564605 -0.599261 
-0.028784 0.228672 0.543 -0.0140742 -0.522087 -0.852776 
-0.0279843 0.229093 0.544 0.238549 -0.533243 -0.811632 
-0.022056 0.229514 0.545 0.323944 0.505734 -0.799558 
-0.0212406 0.229935 0.546 0.34327 0.51055 -0.788355 
-0.0187074 0.230356 0.547 0.350051 0.613722 -0.707679 
-0.0161942 0.231199 0.549 0.334244 0.625744 -0.704787 
-0.0144995 0.23162 0.55 0.330613 0.601651 -0.727125 
-0.00937789 0.232883 0.553 0.378816 0.517749 -0.767095 
-0.00765813 0.233304 0.554 0.379054 0.364817 -0.850427 
-0.00246124 0.234568 0.557 0.413905 0.342662 -0.843366 
0.00453949 0.23541 0.559 0.19868 0.395328 -0.896795 
0.00630313 0.235831 0.56 0.353882 0.429005 -0.831097 
0.00719372 0.236252 0.561 0.246421 0.35333 -0.90246 
0.00895238 0.236252 0.561 0.24619 0.352669 -0.902782 
0.00984923 0.236673 0.562 0.285197 0.308453 -0.907479 
0.0107301 0.236673 0.562 0.268841 0.43916 -0.857241 
0.0125142 0.237094 0.563 0.357855 0.177756 -0.916702 
0.0179038 0.238358 0.566 0.57011 -0.416909 -0.707928 
0.020638 0.2392 0.568 0.0511419 -0.570217 -0.819901 
0.0437859 0.244542 0.568 0.264483 0.428774 -0.86383 
0.0774019 0.318341 0.56 0.678926 -0.507788 -0.530293 
0.0215283 0.2392 0.568 0.241665 -0.420644 -0.874446 
0.0250895 0.2392 0.568 -0.430218 -0.376916 -0.820273 
0.0259341 0.238779 0.567 -0.460161 -0.116836 -0.880114 
0.0285498 0.238358 0.566 -0.69356 -0.224483 -0.684531 
0.0346986 0.237937 0.565 0.294856 0.0582798 -0.953763 
0.0374215 0.238358 0.566 0.425305 -0.432117 -0.79523 
0.0383087 0.238358 0.566 0.421953 -0.359312 -0.832376 
0.0392651 0.238779 0.567 0.23748 -0.495928 -0.835259 
0.0401538 0.238779 0.567 0.236058 -0.65909 -0.714056 
0.0323254 0.251657 0.57 0.63921 0.160394 -0.75212 
0.0437859 0.2392 0.568 0.237569 -0.494163 -0.83628 
0.0455665 0.2392 0.568 0.188454 -0.628078 -0.754986 
0.0542395 0.242148 0.575 0.518713 0.270028 -0.811185 
0.0552367 0.242569 0.576 0.434785 0.339961 -0.8339 
0.0571414 0.24299 0.577 0.341115 0.410224 -0.845788 
-0.0379355 0.251108 0.54 -0.0105601 -0.804644 -0.593664 
0.0599583 0.243411 0.578 0.340112 0.409154 -0.84671 
0.0609696 0.243833 0.579 0.152205 0.428575 -0.890594 
0.0636923 0.243833 0.579 0.19522 0.377598 -0.905157 
-0.0153616 0.242827 0.55 0.42062 -0.736707 -0.529473 
0.0647114 0.244254 0.58 0.405007 0.352563 -0.843605 
0.0656205 0.244254 0.58 0.338754 0.407216 -0.848187 
-0.00329239 0.246275 0.55 0.621816 0.185477 -0.760883 
0.067555 0.244675 0.581 0.340756 0.351291 -0.872055 
0.0707709 0.246359 0.585 0.728828 0.240478 -0.641077 
0.0752022 0.248886 0.591 0.679745 0.266023 -0.683504 
0.0461801 0.274986 0.554 0.218672 -0.0535693 -0.974327 
0.0762573 0.249307 0.592 0.691951 0.298005 -0.657569 
0.0810497 0.252676 0.6 0.764968 0.0378897 -0.642953 
0.08457 0.254782 0.605 0.496534 -0.301995 -0.813789 
0.0855183 0.254782 0.605 0.496734 -0.496061 -0.712165 
0.0885092 0.255203 0.606 -0.214634 -0.471138 -0.855547 
0.0894591 0.255203 0.606 -0.554417 -0.477993 -0.681281 
0.0921564 0.254782 0.605 0.0085666 -0.818851 -0.573942 
0.094053 0.254782 0.605 0.212531 -0.937772 -0.274617 
-0.0159877 0.256286 0.542 0.24944 -0.541412 -0.802903 
-0.0323927 0.282018 0.519 0.287799 -0.621628 -0.728527 
0.0828101 0.281799 0.606 -0.248699 0.212664 -0.944946 
-0.047771 0.230791 0.546 0.38569 0.366466 -0.846727 
-0.0452863 0.231214 0.547 0.191996 0.390099 -0.900533 
-0.0435716 0.231214 0.547 0.000476774 0.544023 -0.83907 
-0.0427142 0.231214 0.547 0.0616789 0.532301 -0.844305 
-0.040142 0.231214 0.547 -0.0500743 0.362528 -0.930627 
-0.0392847 0.231214 0.547 -0.203253 0.396847 -0.895098 
-0.038357 0.230791 0.546 -0.240758 0.528995 -0.813757 
-0.0366454 0.230791 0.546 -0.203471 0.397735 -0.894655 
-0.0348698 0.230368 0.545 -0.59475 0.143298 -0.791036 
-0.0339531 0.229946 0.544 -0.387408 0.0889044 -0.917612 
-0.031395 0.229946 0.544 -0.430353 -0.0271306 -0.902253 
-0.0304862 0.229523 0.543 -0.350012 -0.379881 -0.856261 
-0.028784 0.229523 0.543 -0.0148958 -0.463003 -0.886231 
-0.0245736 0.229946 0.544 0.402715 0.116038 -0.90794 
-0.0204222 0.231214 0.547 0.335568 0.556009 -0.760426 
-0.0187758 0.232059 0.549 0.419662 0.514512 -0.747771 
0.0443631 0.274489 0.553 0.681042 0.0510927 -0.73046 
-0.0153896 0.232905 0.551 0.285544 0.597501 -0.749305 
-0.0145523 0.233327 0.552 0.242464 0.477933 -0.844269 
-0.013687 0.233327 0.552 0.192469 0.525676 -0.828626 
-0.0128218 0.233327 0.552 0.152372 0.537575 -0.829335 
-0.0059321 0.234595 0.555 0.277772 0.151049 -0.948698 
0.0441667 0.284965 0.54 0.635104 -0.271888 -0.722994 
-0.00159103 0.235863 0.558 0.48068 0.237737 -0.844054 
0.0019109 0.236286 0.559 0.115318 0.185568 -0.975841 
0.00454761 0.236709 0.56 0.360876 0.428921 -0.828128 
0.00631439 0.237132 0.561 0.285515 0.309411 -0.907054 
0.00984923 0.237554 0.562 0.325363 0.396226 -0.858571 
0.0107492 0.237977 0.563 0.329951 0.352335 -0.875781 
0.0125142 0.237977 0.563 1.40296e-010 3.65606e-010 -1 
0.0151885 0.2384 0.564 0.427119 -0.366905 -0.826408 
0.016101 0.238822 0.565 0.549997 -0.463569 -0.694699 
0.0206017 0.239668 0.567 0.211505 -0.731323 -0.648407 
0.0214904 0.239668 0.567 0.217493 -0.676863 -0.703245 
0.0224186 0.24009 0.568 0.00855203 -0.523355 -0.852072 
0.0268228 0.239668 0.567 -0.416321 -0.2476 -0.874855 
0.0311562 0.238822 0.565 -0.424023 0.0560086 -0.903918 
0.0319851 0.2384 0.564 -0.290267 0.0601543 -0.955053 
0.0364698 0.238822 0.565 0.405257 -0.271555 -0.87294 
0.0454862 0.239668 0.567 0.151725 -0.384087 -0.910745 
0.0504583 0.242204 0.573 0.383537 0.395519 -0.834545 
0.0513564 0.242204 0.573 0.440311 0.385301 -0.810968 
0.0523458 0.242627 0.574 0.472347 0.423506 -0.773001 
0.0874149 0.264265 0.605 0.022927 0.257183 -0.966091 
0.0542395 0.243049 0.575 0.461934 0.38842 -0.797337 
-0.00553663 0.292841 0.518 2.10516e-011 1.40383e-009 -1 
0.0600621 0.24474 0.579 0.274075 0.425524 -0.862445 
0.0609696 0.24474 0.579 0.232548 0.436783 -0.868989 
0.0628931 0.245163 0.58 0.15203 0.427735 -0.891027 
0.0685835 0.246008 0.582 0.539228 0.330362 -0.774657 
0.0707709 0.247276 0.585 0.780338 0.201547 -0.59199 
0.0731013 0.248967 0.589 0.769339 0.166723 -0.616701 
0.0741502 0.24939 0.59 0.759897 0.0743495 -0.645778 
0.0775764 0.251503 0.595 0.810398 0.167778 -0.561342 
0.0787729 0.252349 0.597 0.840392 0.128302 -0.526574 
0.0822635 0.254462 0.602 0.746041 -0.194974 -0.636716 
0.0855183 0.25573 0.605 0.50434 -0.421544 -0.753619 
0.0902598 0.25573 0.605 -0.555734 -0.479067 -0.679452 
0.0910573 0.255307 0.604 -0.192694 -0.665611 -0.720993 
0.0948442 0.255307 0.604 0.303225 -0.863739 -0.402504 
0.00674491 0.288295 0.526 0.249075 -0.762708 -0.596857 
0.0320985 0.257876 0.566 0.57407 -0.583532 -0.5744 
-0.0322477 0.232504 0.544 -0 -0 -1 
-0.047771 0.231647 0.546 0.459535 0.342527 -0.819453 
0.048662 0.262861 0.573 0.295259 -0.949777 -0.10366 
-0.0470011 0.232071 0.547 0.293236 0.325316 -0.89899 
-0.0445102 0.232495 0.548 0.155031 0.45765 -0.875512 
-0.0427923 0.232495 0.548 -0.0553474 0.455587 -0.888469 
-0.0409994 0.232071 0.547 -0.24992 0.35373 -0.901341 
-0.0331004 0.230798 0.544 3.49217e-010 -6.85388e-010 -1 
-0.031395 0.230798 0.544 -0.38785 -0.0897314 -0.917344 
-0.0296351 0.230374 0.543 -0.00925445 -0.217186 -0.976086 
-0.0279329 0.230374 0.543 -0.00871735 -0.2172 -0.976088 
-0.0262789 0.230798 0.544 0.44005 0.0600326 -0.895965 
-0.0245736 0.230798 0.544 0.395812 0.0929655 -0.913614 
-0.0220965 0.231647 0.546 0.543367 0.379307 -0.748918 
-0.0212795 0.232071 0.547 0.525488 0.420308 -0.739732 
-0.0169305 0.248308 0.545 -0.00167731 -0.877997 -0.478664 
-0.0204595 0.232495 0.548 0.496243 0.458968 -0.736947 
-0.0179479 0.233344 0.55 0.479659 0.488285 -0.729044 
-0.0171169 0.233768 0.551 0.413201 0.549616 -0.726076 
-0.0145523 0.234193 0.552 0.14846 0.524453 -0.838397 
0.0572134 0.279719 0.56 0.517523 0.0436226 -0.854556 
-0.013687 0.234193 0.552 0.155017 0.450673 -0.879127 
0.067555 0.26562 0.581 0.600331 -0.265474 -0.754404 
-0.0128451 0.234617 0.553 0.197841 0.524713 -0.827971 
-0.0119783 0.234617 0.553 0.250724 0.514389 -0.820086 
-0.0102632 0.235041 0.554 0.272129 0.301713 -0.913737 
-0.00852649 0.235041 0.554 0.410175 0.244037 -0.87875 
-0.00246566 0.236738 0.558 0.480338 0.193001 -0.855585 
0.00103471 0.237162 0.559 -0 -0 -1 
0.00366984 0.237587 0.56 0.496591 0.209255 -0.842383 
0.00808744 0.238435 0.562 0.100282 0.232956 -0.967303 
0.0116317 0.238859 0.563 2.22616e-011 -1.90071e-010 -1 
0.0125142 0.238859 0.563 1.18755e-011 -4.75115e-010 -1 
0.0463687 0.257907 0.578 0.197575 -0.278828 -0.939797 
0.0178722 0.239708 0.565 0.500958 -0.42344 -0.754811 
0.0214904 0.240556 0.567 0.233094 -0.66532 -0.709237 
0.0223791 0.240556 0.567 0.00573529 -0.761414 -0.64824 
0.0232679 0.240556 0.567 0.00473024 -0.816901 -0.576758 
0.0241566 0.240556 0.567 0.00618909 -0.761392 -0.648263 
0.0284994 0.239708 0.565 -0.433037 -0.379026 -0.817813 
0.029385 0.239708 0.565 -0.216345 -0.121526 -0.968724 
0.0319851 0.239284 0.564 -0.370774 0.253697 -0.8934 
0.033813 0.239708 0.565 0.257084 0.235239 -0.937321 
0.0364698 0.239708 0.565 0.393852 0.245142 -0.885881 
0.0374215 0.240132 0.566 0.201522 0.0457535 -0.978415 
0.040083 0.240132 0.566 0.010864 -0.207785 -0.978114 
0.0445975 0.240556 0.567 0.00353769 -0.156706 -0.987639 
0.0543338 0.244375 0.576 0.376481 0.504213 -0.777194 
0.0563344 0.245223 0.578 0.346723 0.562636 -0.750482 
0.058247 0.245648 0.579 0.139996 0.519017 -0.843222 
0.0600621 0.245648 0.579 0.275691 0.501748 -0.819904 
0.0610749 0.246072 0.58 0.161793 0.560509 -0.81219 
0.0628931 0.246072 0.58 0.107666 0.510497 -0.853112 
0.0638023 0.246072 0.58 0.151802 0.426855 -0.891488 
0.0648229 0.246496 0.581 0.286759 0.443624 -0.849098 
0.066759 0.24692 0.582 0.158671 0.363323 -0.918052 
0.0697346 0.247769 0.584 0.692353 0.198076 -0.693839 
0.0731013 0.24989 0.589 0.798203 0.03853 -0.601156 
0.0753294 0.251163 0.592 0.780952 0.148409 -0.606704 
0.0763862 0.251587 0.593 0.779408 0.13286 -0.612268 
0.0787729 0.253284 0.597 0.831009 0.161267 -0.532369 
0.0844302 0.256254 0.604 0.6526 -0.332813 -0.680697 
0.0864666 0.256678 0.605 0.504383 -0.421301 -0.753727 
0.0883632 0.256678 0.605 -0.398246 -0.581968 -0.709023 
0.103188 0.263042 0.62 0.811668 -0.560476 -0.164503 
0.105979 0.265164 0.625 0.511801 -0.844192 -0.159369 
0.10713 0.265588 0.626 0.434297 -0.867494 -0.242571 
0.0514096 0.289312 0.545 0.236611 -0.781324 -0.577537 
0.088334 0.326299 0.574 0.771049 0.238467 -0.590438 
0.0317618 0.273935 0.545 -0 -0 -1 
-0.0253328 0.246941 0.542 -0.222458 -0.730163 -0.646045 
-0.0486268 0.232503 0.546 0.574034 0.30301 -0.760703 
-0.0478585 0.232929 0.547 0.501535 0.20412 -0.840713 
-0.0470011 0.232929 0.547 0.519923 0.224458 -0.824196 
-0.0453691 0.233354 0.548 0.17501 0.31628 -0.932383 
-0.0427923 0.233354 0.548 0.011513 0.441941 -0.89697 
-0.0419333 0.233354 0.548 -0.158139 0.47357 -0.866443 
-0.0410744 0.233354 0.548 -0.283215 0.443944 -0.850119 
-0.0384273 0.232929 0.547 -0 -0 -1 
-0.0375699 0.232929 0.547 -0.274546 0.297787 -0.914301 
-0.0431294 0.265234 0.531 -0.286156 -0.408939 -0.866535 
-0.031395 0.231651 0.544 -0.507636 2.19949e-005 -0.861571 
-0.0296351 0.231225 0.543 -2.43039e-018 1.14977e-009 -1 
-0.0279329 0.231225 0.543 2.55282e-011 1.14977e-009 -1 
-0.0254263 0.231651 0.544 -2.8038e-010 -9.70875e-010 -1 
-0.0237645 0.232077 0.545 0.70166 0.246995 -0.668331 
-0.0229523 0.232503 0.546 0.596843 0.361898 -0.716107 
-0.0204968 0.23378 0.549 0.424059 0.432511 -0.795681 
-0.0171479 0.235058 0.552 0.420788 0.53156 -0.735107 
-0.0154454 0.235484 0.553 0.190269 0.595169 -0.780751 
-0.0128451 0.235484 0.553 0.197547 0.524223 -0.828351 
-0.0111316 0.235909 0.554 0.099246 0.237074 -0.966409 
-0.00246566 0.237613 0.558 0.566571 -0.103936 -0.817432 
-0.00159103 0.237613 0.558 0.480627 -0.3679 -0.79602 
0.00279208 0.238464 0.56 0.562652 -0.103199 -0.820227 
0.00896834 0.239316 0.562 0.250245 0.189214 -0.949513 
0.00986676 0.239742 0.563 0.268196 0.294334 -0.9173 
0.0125142 0.239742 0.563 1.18648e-011 -1.42575e-009 -1 
0.0133966 0.239742 0.563 0.31851 -0.140467 -0.937454 
0.0143044 0.240168 0.564 0.51145 -0.240666 -0.824924 
0.0160725 0.240168 0.564 0.472516 -0.358143 -0.805271 
0.0205653 0.241019 0.566 0.397724 -0.650179 -0.647366 
0.0214525 0.241019 0.566 0.00597297 -0.799083 -0.601191 
0.0232268 0.241019 0.566 0.00229806 -0.850545 -0.525897 
0.0250012 0.241019 0.566 0.00247414 -0.850538 -0.525908 
0.029385 0.240594 0.565 0.00804892 -0.207828 -0.978132 
0.0302706 0.240594 0.565 0.00829632 -0.207821 -0.978132 
0.0311562 0.240594 0.565 -0.213192 0.137385 -0.967303 
0.0319851 0.240168 0.564 -0.367098 0.252263 -0.895323 
0.0329274 0.240594 0.565 0.152812 0.438864 -0.885464 
0.0346986 0.240594 0.565 0.197821 0.387601 -0.900351 
0.0365344 0.241019 0.566 0.186596 0.451299 -0.872646 
0.0374215 0.241019 0.566 0.0442815 0.227074 -0.97287 
0.0383087 0.241019 0.566 -0.0931954 0.232035 -0.968233 
0.0391959 0.241019 0.566 -0 -0 -1 
0.040083 0.241019 0.566 -0 -0 -1 
-0.00237728 0.265357 0.538 5.31617e-005 -0.943825 -0.330446 
0.0409702 0.241019 0.566 -0 -0 -1 
0.0418574 0.241019 0.566 -0 -0 -1 
0.0535237 0.245703 0.577 0.352564 0.506386 -0.786939 
0.0872704 0.260041 0.604 2.18192e-018 -4.12824e-010 -1 
0.0554285 0.246129 0.578 0.37385 0.485137 -0.790493 
0.0658468 0.247833 0.582 0.23899 0.333093 -0.912103 
0.0687013 0.248258 0.583 0.615497 0.224994 -0.755341 
0.0697346 0.248684 0.584 0.699287 0.159963 -0.696713 
0.0707709 0.24911 0.585 0.617278 0.170858 -0.767968 
0.0581464 0.257907 0.578 0.41501 -0.349345 -0.840074 
0.0731013 0.250813 0.589 0.798783 -0.0694225 -0.597601 
0.0741502 0.251239 0.59 0.805121 -0.00668726 -0.593073 
0.0753294 0.252091 0.592 0.828812 0.0581273 -0.5565 
0.0775764 0.253368 0.595 0.800682 0.120513 -0.586843 
0.0787729 0.25422 0.597 0.82044 0.138934 -0.554595 
0.0832071 0.256349 0.602 0.732691 -0.110049 -0.671605 
0.0842904 0.256775 0.603 0.732511 -0.130821 -0.668067 
0.0891639 0.257201 0.604 -0.556724 -0.478971 -0.678708 
-0.00150549 0.273667 0.528 -1.68848e-012 -7.83444e-019 -1 
0.0935866 0.256349 0.602 0.194478 0.0128132 -0.980823 
0.0946872 0.256775 0.603 0.518401 -0.126743 -0.845693 
0.0967377 0.257201 0.604 0.821325 -0.109161 -0.559919 
0.102688 0.262737 0.617 0.841178 -0.487283 -0.234466 
0.10564 0.265292 0.623 0.594083 -0.783766 -0.181042 
0.0379585 0.286214 0.536 0.157793 -0.0919017 -0.983186 
-0.0133399 0.261141 0.538 0.577081 -0.579734 -0.575227 
0.0916994 0.25918 0.602 -0.416253 0.313802 -0.853382 
0.0231858 0.252106 0.565 0.0395149 -0.2391 -0.970191 
0.0757032 0.291214 0.567 0.740638 -0.200631 -0.641251 
0.0957767 0.307136 0.598 0.646536 -0.734032 -0.207818 
-0.0486268 0.233359 0.546 0.59531 0.254777 -0.762034 
0.0486676 0.289952 0.543 0.273844 -0.314469 -0.908911 
-0.0478585 0.233786 0.547 0.370976 0.192252 -0.908524 
-0.0470011 0.233786 0.547 0.537642 0.0879797 -0.83857 
-0.0445914 0.234641 0.549 0.355687 0.271279 -0.894368 
-0.0392847 0.233786 0.547 -0.274295 0.297298 -0.914536 
-0.031395 0.232504 0.544 -0.226254 0.141952 -0.96367 
-0.0296351 0.232076 0.543 1.50502e-011 -3.06122e-010 -1 
-0.0246187 0.232931 0.545 0.678997 0.214158 -0.702211 
-0.0238081 0.233359 0.546 0.72561 0.224894 -0.650317 
-0.0229943 0.233786 0.547 0.724534 0.224557 -0.651632 
-0.0221774 0.234213 0.548 0.72347 0.224203 -0.652934 
0.0658468 0.260604 0.582 0.400189 -0.124276 -0.907967 
-0.0188442 0.235496 0.551 0.538491 0.445853 -0.715012 
-0.0180132 0.235923 0.552 0.485707 0.440017 -0.755297 
-0.017179 0.23635 0.553 0.457301 0.453216 -0.765161 
-0.0163122 0.23635 0.553 0.325123 0.501773 -0.801573 
-0.0154734 0.236778 0.554 0.149597 0.465375 -0.87238 
-0.0128683 0.236778 0.554 0.00453681 0.221362 -0.975181 
-0.0111316 0.236778 0.554 -2.45439e-011 -3.68074e-010 -1 
-0.0102632 0.236778 0.554 7.15409e-011 9.32029e-010 -1 
-0.00939484 0.236778 0.554 0.410017 0.244153 -0.878792 
-0.00680203 0.237205 0.555 1.14614e-011 -2.00336e-020 -1 
-0.0007164 0.238487 0.558 0.561401 -0.473486 -0.678705 
0.00103471 0.238915 0.559 0.243565 -0.316878 -0.916659 
0.0019109 0.238915 0.559 0.425141 -0.135479 -0.89493 
0.00279208 0.239342 0.56 0.51856 -0.244332 -0.819389 
0.00720654 0.240197 0.562 0.515491 -0.242753 -0.821791 
0.00986676 0.240624 0.563 0.199346 -0.00560928 -0.979913 
0.0107492 0.240624 0.563 -2.98219e-011 1.71066e-009 -1 
0.0116317 0.240624 0.563 2.2396e-011 1.71066e-009 -1 
0.0142791 0.240624 0.563 0.428929 -0.367891 -0.825031 
0.0196434 0.241479 0.565 0.00194753 -0.851822 -0.523827 
0.0214525 0.241907 0.566 -0.0199946 -0.879116 -0.476188 
0.0223002 0.241479 0.565 -0.112634 -0.928223 -0.354565 
0.0267282 0.241479 0.565 -0.207078 -0.745108 -0.633982 
0.0284994 0.241479 0.565 0.00675151 -0.54578 -0.837901 
0.0338729 0.241907 0.566 0.195016 0.509638 -0.837996 
0.0356472 0.241907 0.566 0.108 0.519443 -0.847653 
0.0383764 0.242334 0.567 -0.217547 0.572098 -0.790808 
0.0391959 0.241907 0.566 -0.194663 0.396367 -0.897218 
0.0427445 0.241907 0.566 0.325357 0.343888 -0.880843 
0.0516253 0.246181 0.576 0.369659 0.512905 -0.774778 
0.0526193 0.246608 0.577 0.321074 0.504456 -0.801521 
0.0612855 0.248745 0.582 0.138328 0.465931 -0.873941 
0.06311 0.248745 0.582 -0.0105938 0.422898 -0.906115 
0.0658468 0.248745 0.582 0.107412 0.508648 -0.854248 
0.069854 0.250027 0.585 0.620345 0.168242 -0.766073 
0.0741502 0.252164 0.59 0.837153 -0.0404514 -0.54547 
0.0753294 0.253019 0.592 0.84668 0.0474063 -0.529987 
0.0777068 0.254728 0.596 0.805402 0.195077 -0.559708 
0.0789049 0.255583 0.598 0.776009 0.121323 -0.618943 
0.0799757 0.256011 0.599 0.681944 -5.48858e-005 -0.731404 
0.0832071 0.257293 0.602 0.678841 5.24612e-005 -0.734286 
0.0853769 0.258148 0.604 0.366739 -0.143746 -0.919152 
0.0891639 0.258148 0.604 -0.578462 -0.436136 -0.689323 
0.0956324 0.25772 0.603 0.494515 0.160531 -0.854216 
0.0967377 0.258148 0.604 0.57583 0.220908 -0.787159 
0.0994476 0.260285 0.609 0.874749 0.0541908 -0.481536 
0.100897 0.261567 0.612 0.886912 -0.107055 -0.449362 
0.102522 0.263276 0.616 0.899613 -0.29768 -0.319505 
0.108918 0.267123 0.625 0.553014 -0.79148 -0.26026 
0.073495 0.315762 0.557 0.847057 -0.470105 -0.247984 
-0.03391 0.25975 0.53 -0.428223 -0.688712 -0.585065 
-0.0083418 0.258835 0.542 0.272161 -0.388938 -0.880145 
0.0423952 0.283592 0.539 0.660231 -0.552652 -0.508597 
-0.0487159 0.234643 0.547 0.274633 0.310975 -0.909874 
-0.0470011 0.234643 0.547 0.421383 0.254238 -0.870517 
-0.0453691 0.235072 0.548 0.499006 0.203079 -0.842467 
-0.0437309 0.235501 0.549 -1.42401e-018 1.49959e-009 -1 
-0.0367125 0.234643 0.547 -0.384999 0.0889003 -0.918625 
-0.0357896 0.234214 0.546 -0.709723 0.0388462 -0.703409 
-0.0296351 0.232928 0.543 -0.27609 0.300498 -0.912949 
-0.0254263 0.233356 0.544 0.495462 0.200524 -0.845167 
-0.0229943 0.234643 0.547 0.774991 0.00017539 -0.631972 
-0.0221774 0.235072 0.548 0.773876 -8.10994e-005 -0.633337 
-0.0205342 0.23593 0.55 0.733447 0.0855972 -0.674336 
-0.0188784 0.236788 0.552 0.698228 -0.0484697 -0.714233 
-0.0163417 0.237646 0.554 0.518367 -0.226071 -0.824735 
-0.0111316 0.237646 0.554 1.47775e-015 -1.37533e-009 -1 
-0.0094118 0.238075 0.555 0.47237 0.0811294 -0.877659 
-0.00767195 0.238075 0.555 1.91023e-011 1.95572e-009 -1 
-0.00680203 0.238075 0.555 1.14614e-011 1.95572e-009 -1 
-0.0050713 0.238504 0.556 0.660454 -0.214908 -0.719455 
-0.0041998 0.238504 0.556 0.265618 -0.150965 -0.952185 
0.000158227 0.239362 0.558 0.446167 -0.522803 -0.726369 
0.00454761 0.24022 0.56 0.578161 -0.381766 -0.7211 
0.00543506 0.240649 0.561 0.414719 -0.280704 -0.865571 
0.00631439 0.240649 0.561 0.447312 -0.206464 -0.870221 
-0.0457587 0.275994 0.523 0.164549 -0.379556 -0.910418 
0.00896834 0.241078 0.562 0.545358 -0.0598801 -0.836062 
0.0107492 0.241507 0.563 -2.37591e-011 -2.37625e-010 -1 
0.0125142 0.241507 0.563 2.96884e-011 1.9007e-010 -1 
0.0142791 0.241507 0.563 0.243662 -0.312127 -0.918262 
0.016044 0.241507 0.563 0.236884 -0.505079 -0.829929 
0.0169565 0.241936 0.564 0.236962 -0.50502 -0.829942 
0.0196086 0.241936 0.564 -0.000257925 -0.910212 -0.414143 
0.0222607 0.241936 0.564 -9.99856e-005 -0.910288 -0.413976 
0.0231448 0.241936 0.564 0.000257955 -0.910205 -0.414159 
0.0257969 0.241936 0.564 0.000257958 -0.910204 -0.41416 
0.0320418 0.242365 0.565 0.276063 0.247 -0.92886 
0.0384441 0.243652 0.568 -0.063588 0.448295 -0.891621 
0.0392651 0.243223 0.567 -0.161668 0.579801 -0.798558 
0.0401538 0.243223 0.567 -0.0530812 0.578524 -0.813936 
0.0437088 0.243223 0.567 0.275263 0.450186 -0.849449 
0.0498196 0.247083 0.576 0.61571 0.440893 -0.653081 
0.0527105 0.247941 0.578 0.365769 0.458766 -0.809782 
0.0536165 0.247941 0.578 0.351896 0.505575 -0.787758 
0.0546168 0.24837 0.579 0.319961 0.502901 -0.802942 
0.0575375 0.249228 0.581 0.364185 0.456438 -0.811809 
0.0584482 0.249228 0.581 0.29132 0.495001 -0.818601 
0.059461 0.249657 0.582 0.27055 0.440013 -0.856266 
0.0603733 0.249657 0.582 0.15059 0.510748 -0.846439 
0.0621978 0.249657 0.582 -0.0106476 0.422184 -0.906448 
0.06311 0.249657 0.582 0.053828 0.434912 -0.898863 
0.0640223 0.249657 0.582 0.151134 0.425186 -0.892399 
0.0659599 0.250086 0.583 0.0491536 0.34207 -0.938388 
0.0687013 0.250086 0.583 0.431394 0.0279067 -0.901732 
0.0707709 0.250944 0.585 0.681189 -0.0198072 -0.73184 
0.0753294 0.253947 0.592 0.860883 -0.000142896 -0.508802 
0.0799757 0.25695 0.599 0.681993 3.11609e-007 -0.731359 
0.0810497 0.257378 0.6 0.677249 0.0928867 -0.729867 
0.0872704 0.259094 0.604 0.0190463 -0.193507 -0.980914 
0.0882171 0.259094 0.604 0.00280822 -0.219516 -0.975605 
0.0891639 0.259094 0.604 -0.527253 -0.281061 -0.801879 
0.0968979 0.259523 0.605 0.646061 0.29923 -0.702187 
0.106274 0.266387 0.621 0.632506 -0.690446 -0.351028 
0.10742 0.266816 0.622 0.687966 -0.622825 -0.372548 
0.108569 0.267245 0.623 0.706803 -0.60501 -0.366596 
0.109722 0.267674 0.624 0.801466 -0.497013 -0.332612 
-0.0367125 0.235501 0.547 -0.384943 0.0889778 -0.918641 
0.0847098 0.280849 0.606 0.235224 -0.384013 -0.892863 
0.051483 0.284181 0.555 0.331005 -0.425677 -0.842161 
-0.0462281 0.235931 0.548 0.497865 0.251077 -0.830115 
-0.0454519 0.236362 0.549 0.419884 0.253343 -0.871502 
-0.0445914 0.236362 0.549 -1.35272e-010 -2.8024e-010 -1 
-0.0420098 0.236362 0.549 9.99436e-011 -2.49931e-010 -1 
-0.0357896 0.23507 0.546 -0.703099 0.0117178 -0.710996 
-0.0349337 0.23507 0.546 -0.561643 0.153358 -0.813043 
-0.0340155 0.23464 0.545 -0.566477 0.174985 -0.805285 
-0.031395 0.234209 0.544 5.0905e-011 1.2721e-010 -1 
-0.028784 0.233779 0.543 -0.163246 0.386165 -0.90787 
-0.025473 0.23464 0.545 0.599278 0.256533 -0.758325 
-0.0238081 0.23507 0.546 0.725287 0.224975 -0.650649 
