ply
format ascii 1.0
comment VCGLIB generated
element vertex 871
property float x
property float y
property float z
property float nx
property float ny
property float nz
element face 0
property list uchar int vertex_indices
end_header
-0.0202682 0.166333 0.571 0.12073 -0.945299 -0.303043 
-0.0194247 0.166607 0.572 0.0320199 -0.967487 -0.250884 
-0.0148982 0.166333 0.571 -0.280655 -0.814845 -0.507209 
-0.0139612 0.166059 0.57 -0.281399 -0.815639 -0.505518 
-0.0130677 0.166059 0.57 0.000178982 -0.850093 -0.526633 
-0.0121743 0.166059 0.57 -0.000179014 -0.850086 -0.526643 
-0.0103874 0.166059 0.57 0.278764 -0.700812 -0.656623 
-0.00952818 0.166333 0.571 0.403224 -0.366117 -0.83867 
-0.00863318 0.166333 0.571 0.548271 -0.41715 -0.724834 
-0.00776924 0.166607 0.572 0.543437 -0.183098 -0.819238 
-0.00333284 0.167154 0.574 0.721893 -0.0612017 -0.689293 
0.000181199 0.168523 0.579 0.685742 -0.275966 -0.673499 
0.00833484 0.169892 0.584 0.254163 -0.466118 -0.847428 
0.0836012 0.183308 0.633 0.457319 -0.46562 -0.757665 
0.0101656 0.169892 0.584 5.15789e-005 -0.436331 -0.899786 
0.0129117 0.169892 0.584 0.0715578 -0.568887 -0.819297 
0.0138271 0.169892 0.584 0.209427 -0.555905 -0.804431 
0.0302692 0.189722 0.583 0.473556 0.602856 -0.642113 
0.0165845 0.170166 0.585 0.216742 -0.703904 -0.676419 
0.0175015 0.170166 0.585 0.32805 -0.696959 -0.637677 
0.0184328 0.17044 0.586 0.334932 -0.702954 -0.627437 
0.0193513 0.17044 0.586 0.334491 -0.703145 -0.627457 
0.0202874 0.170714 0.587 0.242486 -0.644121 -0.725472 
0.0221275 0.170714 0.587 0.515546 -0.337895 -0.787426 
0.0240153 0.171261 0.589 0.624725 -0.395287 -0.673399 
0.0249385 0.171261 0.589 0.493262 -0.505118 -0.708201 
0.0286946 0.171809 0.591 0.484457 -0.567444 -0.665814 
0.0296542 0.172083 0.592 0.534353 -0.47013 -0.702456 
0.0315464 0.172356 0.593 0.530897 -0.334204 -0.778753 
0.00205158 0.173737 0.575 0.544214 -0.412312 -0.730636 
0.0334448 0.17263 0.594 0.210529 -0.436338 -0.874807 
0.036238 0.17263 0.594 0.215607 -0.691884 -0.689064 
0.0867937 0.297971 0.582 0.210629 -0.974358 -0.0791291 
0.0391289 0.173178 0.596 0.734135 -0.394274 -0.552805 
0.040164 0.173725 0.598 0.762586 -0.324962 -0.559341 
0.0411533 0.173999 0.599 0.76093 -0.412383 -0.500925 
0.0421458 0.174273 0.6 0.696512 -0.451602 -0.557609 
0.0462068 0.175642 0.605 0.610251 -0.416814 -0.673691 
0.0531282 0.176737 0.609 0.666944 -0.0560314 -0.742998 
0.0541551 0.177011 0.61 0.60254 -0.222833 -0.766349 
0.0551113 0.177011 0.61 0.637948 -0.256478 -0.726114 
-0.0181386 0.239499 0.547 0.236752 -0.530254 -0.814112 
0.0571777 0.177558 0.612 0.738622 -0.233362 -0.632439 
0.0635388 0.179475 0.619 0.456884 0.312664 -0.832765 
0.0698397 0.180844 0.624 0.681459 -0.000139169 -0.731856 
0.072093 0.181665 0.627 0.536756 -0.0951866 -0.838351 
0.0730758 0.181665 0.627 0.658909 -0.0730987 -0.748662 
0.0795225 0.183034 0.632 0.356995 -0.316748 -0.878764 
0.0806213 0.320279 0.555 0.810553 0.115722 -0.574118 
0.0815037 0.183034 0.632 0.358724 -0.126787 -0.924793 
0.0847112 0.183582 0.634 0.196674 -0.505234 -0.840273 
0.085705 0.183582 0.634 0.349026 -0.450423 -0.821766 
0.0866987 0.183582 0.634 0.456211 -0.46428 -0.759154 
0.087815 0.183856 0.635 0.46411 -0.39684 -0.791909 
0.0888104 0.183856 0.635 0.614647 -0.35152 -0.706146 
0.00835765 0.177633 0.576 0.283719 -0.760891 -0.583565 
0.0576805 0.270609 0.572 0.352556 -0.800175 -0.485205 
0.0931828 0.184677 0.638 0.569561 -0.210212 -0.794614 
0.0943147 0.184951 0.639 0.645385 -0.221375 -0.731075 
0.0954498 0.185224 0.64 0.660531 -0.000131829 -0.750798 
0.0119212 0.209676 0.562 0.660588 -0.360436 -0.658566 
0.0965881 0.185498 0.641 0.649913 -0.109051 -0.752144 
0.0987358 0.185772 0.642 0.374458 0.031004 -0.926725 
0.102905 0.186046 0.643 0.383113 -0.136936 -0.913495 
-0.0207658 0.296899 0.519 0.246905 -0.782764 -0.571242 
0.104059 0.18632 0.644 0.359839 -0.224859 -0.905513 
0.0724822 0.287483 0.568 0.695129 -0.349941 -0.627963 
0.106078 0.18632 0.644 0.352864 -0.24602 -0.902752 
0.111439 0.186867 0.646 0.341052 -0.534405 -0.773366 
0.112611 0.187141 0.647 0.352995 -0.625927 -0.695421 
0.113625 0.187141 0.647 0.574212 -0.537955 -0.617158 
0.114801 0.187415 0.648 0.658958 -0.497256 -0.564367 
0.11598 0.187689 0.649 0.544885 -0.54669 -0.635792 
0.119535 0.18851 0.652 0.68324 -0.588738 -0.431938 
0.0258742 0.296908 0.528 0.553527 0.106261 -0.826024 
0.0606845 0.220958 0.586 0.406976 -0.476141 -0.779526 
0.0410042 0.303251 0.532 0.54153 0.0171035 -0.840508 
0.0689512 0.235655 0.586 0.720174 -0.112215 -0.684658 
0.0749345 0.255096 0.582 0.316963 0.263303 -0.911156 
0.0876783 0.320669 0.562 0.388645 0.415084 -0.822593 
-0.0275735 0.300252 0.512 -0.300901 -0.334335 -0.893129 
0.0204056 0.271121 0.545 0.193241 -0.78832 -0.584132 
-0.0562248 0.240758 0.55 -0.144894 0.533765 -0.833127 
0.0358846 0.184218 0.586 0.841785 -0.333885 -0.424168 
-0.035722 0.222109 0.542 0.441576 -0.0311776 -0.896682 
-0.0580604 0.210102 0.544 -0.556913 0.040241 -0.829595 
0.00928232 0.244534 0.559 0.218511 0.424392 -0.878717 
0.05752 0.230997 0.581 0.489418 -0.15122 -0.858838 
-0.0581514 0.165851 0.566 -0.419212 -0.205149 -0.884407 
-0.0572642 0.165851 0.566 -0.21039 -0.408338 -0.888255 
-0.0554899 0.165851 0.566 0.181619 -0.43807 -0.880403 
-0.0546027 0.165851 0.566 0.433869 -0.229761 -0.871188 
-0.0529394 0.166127 0.567 0.411218 -0.380522 -0.828313 
0.0192709 0.28916 0.529 -0.215705 -0.864529 -0.453939 
-0.0520507 0.166127 0.567 0.588599 -0.234817 -0.773571 
-0.0512698 0.166402 0.568 0.379649 -0.401252 -0.833585 
-0.0494892 0.166402 0.568 0.0672941 -0.589806 -0.804736 
-0.0485989 0.166402 0.568 0.0690838 -0.419007 -0.905351 
-0.0441474 0.166402 0.568 -0.0782997 -0.580407 -0.810553 
-0.0414765 0.166402 0.568 0.0678946 -0.588502 -0.80564 
-0.0388056 0.166402 0.568 0.0681693 -0.588322 -0.805748 
-0.0379153 0.166402 0.568 0.0682527 -0.588264 -0.805784 
-0.0361346 0.166402 0.568 -0.0775389 -0.58109 -0.810137 
0.0398011 0.222565 0.573 0.226481 -0.484829 -0.844776 
-0.0352443 0.166402 0.568 -0.0774515 -0.581166 -0.810091 
0.0419282 0.218438 0.579 0.416546 -0.677009 -0.606752 
-0.0334637 0.166402 0.568 0.0687042 -0.587965 -0.805963 
-0.0325734 0.166402 0.568 0.0687923 -0.587904 -0.806 
-0.00484226 0.187969 0.563 -0.00321699 -0.52485 -0.851189 
-0.0316831 0.166402 0.568 0.213066 -0.580206 -0.786107 
-0.0290122 0.166402 0.568 -0.223496 -0.451996 -0.863568 
-0.0281219 0.166402 0.568 0.114153 -0.497861 -0.859711 
-0.0272972 0.166677 0.569 0.233128 -0.805091 -0.545417 
-0.0220021 0.166953 0.57 0.195224 -0.927971 -0.317422 
-0.0211087 0.166953 0.57 0.13894 -0.883075 -0.44819 
-0.0202152 0.166953 0.57 9.21172e-005 -0.85075 -0.525571 
-0.0193218 0.166953 0.57 0.0245291 -0.92687 -0.374581 
0.0850749 0.227022 0.59 0.232464 -0.289584 -0.928494 
-0.0175349 0.166953 0.57 -9.21408e-005 -0.850746 -0.525578 
0.0835534 0.21363 0.608 0.490099 -0.415055 -0.766506 
-0.0166415 0.166953 0.57 0.00023761 -0.850667 -0.525705 
-0.015748 0.166953 0.57 -0.000237634 -0.850657 -0.525721 
0.0869836 0.22116 0.605 0.59178 -0.507065 -0.626643 
-0.0139191 0.166677 0.569 -0.240451 -0.734169 -0.634965 
-0.0130273 0.166677 0.569 0.0651811 -0.738817 -0.670747 
-0.0145382 0.283757 0.525 0.220612 -0.624862 -0.748918 
-0.0121354 0.166677 0.569 0.0707557 -0.585243 -0.807765 
-0.0103874 0.166953 0.57 0.528323 -0.456737 -0.715728 
-0.00949398 0.166953 0.57 0.51305 -0.528034 -0.676728 
-0.00863318 0.167228 0.571 0.560861 -0.355661 -0.747623 
-0.00773817 0.167228 0.571 0.560276 -0.355093 -0.748331 
-0.0059761 0.167503 0.572 0.657487 -0.244014 -0.712859 
-0.00510589 0.167779 0.573 0.407245 -0.145773 -0.901611 
-0.00420775 0.167779 0.573 0.53165 -0.0502943 -0.84547 
0.0971297 0.318127 0.572 0.8645 -0.070313 -0.49769 
-0.00333284 0.168054 0.574 0.721801 -0.0975814 -0.685187 
-0.000689293 0.16888 0.577 0.75034 -0.361139 -0.553686 
0.000198158 0.169156 0.578 0.622829 -0.459197 -0.633421 
0.00108874 0.169431 0.579 0.505244 -0.518894 -0.689549 
0.00199629 0.169431 0.579 0.58275 -0.508515 -0.633889 
0.00379 0.169982 0.581 0.64699 -0.646863 -0.403698 
0.00833769 0.170532 0.583 0.322378 -0.718888 -0.615851 
0.0478843 0.265676 0.573 0.429614 -0.876337 -0.217866 
0.0110791 0.170532 0.583 0.209836 -0.557718 -0.803069 
0.0119964 0.170808 0.584 0.209914 -0.557456 -0.80323 
0.0147425 0.170808 0.584 0.217079 -0.705805 -0.674326 
0.000639071 0.207853 0.552 0.417376 -0.252133 -0.873056 
0.0156579 0.170808 0.584 0.152597 -0.704863 -0.692736 
-0.0244524 0.191414 0.552 0.427702 -0.384097 -0.818255 
0.0165733 0.170808 0.584 0.20953 -0.555892 -0.804414 
-0.0509012 0.206454 0.541 -0.42748 -0.363155 -0.827876 
0.0175015 0.171083 0.585 0.274404 -0.682173 -0.677748 
0.0184184 0.171083 0.585 0.358972 -0.60421 -0.711386 
0.0211884 0.171358 0.586 0.350672 -0.673136 -0.651089 
0.0221275 0.171634 0.587 0.515546 -0.337895 -0.787426 
0.0239915 0.171909 0.588 0.547642 -0.364044 -0.753366 
0.0249385 0.172185 0.589 0.403015 -0.476317 -0.781474 
0.0277382 0.17246 0.59 0.522021 -0.470336 -0.711532 
0.028663 0.17246 0.59 0.502371 -0.548951 -0.668039 
0.111728 0.217706 0.629 0.511731 -0.474391 -0.716299 
0.0538818 0.292657 0.547 0.560627 -0.556065 -0.613587 
0.0305821 0.173011 0.592 0.502526 -0.432159 -0.748803 
0.0324759 0.173286 0.593 0.271956 -0.671978 -0.688829 
0.0361938 0.173286 0.593 0.271646 -0.670621 -0.690273 
0.03908 0.173837 0.595 0.671228 -0.475683 -0.568488 
-0.0427302 0.295272 0.519 -0 -0 -1 
0.0557269 0.270591 0.57 0.322383 -0.87136 -0.369866 
0.0471551 0.17659 0.605 0.518069 -0.325233 -0.791093 
0.0481664 0.176866 0.606 0.489721 -0.42033 -0.763869 
0.0491163 0.176866 0.606 0.516757 -0.324384 -0.792299 
0.0511514 0.177416 0.608 0.532363 -0.209234 -0.82025 
0.0521044 0.177416 0.608 0.60229 -0.0389356 -0.797327 
-0.0123638 0.271564 0.532 0.661677 0.211383 -0.719375 
0.0551113 0.177967 0.61 0.610599 -0.16565 -0.774422 
0.0625685 0.180445 0.619 0.65515 0.202827 -0.727764 
0.0636253 0.180721 0.62 0.378078 0.21159 -0.901269 
0.104687 0.304582 0.603 0.695724 0.227797 -0.681231 
-0.0466387 0.254967 0.549 0.538466 0.344879 -0.768839 
0.0645971 0.180721 0.62 0.338405 0.262551 -0.903631 
0.0666319 0.180996 0.621 0.595351 0.238152 -0.76736 
0.067698 0.181271 0.622 0.624436 0.0981422 -0.774886 
-0.00977938 0.198677 0.553 0.412717 -0.293019 -0.862441 
0.0698397 0.181822 0.624 0.684141 0.178799 -0.707094 
0.027167 0.211978 0.571 0.673462 -0.393849 -0.625565 
0.072093 0.182648 0.627 0.50867 0.00812979 -0.860923 
0.0216317 0.255037 0.563 0.00570987 -0.320521 -0.947224 
0.0742629 0.183199 0.629 0.653644 -0.0725277 -0.753319 
0.0753525 0.183474 0.63 0.483632 -0.0987815 -0.869679 
0.07634 0.183474 0.63 0.360363 -0.127427 -0.924067 
0.0815037 0.184025 0.632 0.357459 -0.376358 -0.854739 
0.047686 0.233961 0.57 0.502755 0.316701 -0.804325 
0.0836012 0.1843 0.633 0.259874 -0.630007 -0.731818 
0.0920539 0.185402 0.637 0.642815 -0.313616 -0.69888 
0.0931828 0.185677 0.638 0.5667 -0.311526 -0.76276 
0.0943147 0.185952 0.639 0.699476 -0.174622 -0.692994 
0.0987358 0.186778 0.642 0.374457 0.0310797 -0.926723 
0.099742 0.186778 0.642 0.383005 -0.115128 -0.916544 
0.10089 0.187054 0.643 0.349508 -0.308351 -0.88474 
0.101898 0.187054 0.643 0.203225 -0.265568 -0.942429 
0.104059 0.187329 0.644 0.365238 -0.265381 -0.892286 
0.106078 0.187329 0.644 0.349323 -0.365707 -0.862689 
0.108097 0.187329 0.644 0.183751 -0.560158 -0.807749 
0.0471798 0.225484 0.576 0.544509 -0.361886 -0.756669 
0.111439 0.18788 0.646 0.196033 -0.545545 -0.814833 
0.112452 0.18788 0.646 0.328693 -0.539219 -0.775373 
-0.0039102 0.190854 0.561 -0.00245999 -0.649351 -0.760485 
0.114801 0.18843 0.648 0.614908 -0.527422 -0.586271 
0.119367 0.189257 0.651 0.637191 -0.491104 -0.593974 
-0.0459842 0.30178 0.519 -0.543337 -0.552128 -0.632408 
-0.0310226 0.297109 0.515 -0.226726 -0.874655 -0.428456 
0.0192237 0.180027 0.578 0.388448 -0.544325 -0.743518 
-0.0296918 0.171775 0.565 -0.226283 -0.455306 -0.861099 
0.00415341 0.257504 0.547 0.208679 0.506813 -0.836417 
0.110261 0.221621 0.626 0.571736 -0.379684 -0.727295 
0.0540942 0.245505 0.572 0.00801152 -0.666938 -0.74507 
0.0788395 0.203105 0.617 0.48791 -0.558837 -0.670556 
-0.0166468 0.306089 0.518 0.3724 -0.0382609 -0.927283 
0.0807709 0.274698 0.585 0.524828 -0.655843 -0.542609 
0.108179 0.240287 0.613 0.691869 -0.228692 -0.684849 
0.0250808 0.23442 0.56 0.637635 -0.0626621 -0.767786 
-0.0212796 0.223809 0.542 0.226656 -0.128836 -0.965416 
0.0701123 0.207587 0.607 0.428556 -0.733969 -0.526905 
0.11742 0.271941 0.622 0.37435 0.0109329 -0.927223 
0.0218796 0.188158 0.575 0.540804 -0.483957 -0.68798 
-0.0466613 0.264117 0.541 -0.0119646 -0.857672 -0.514058 
0.0208638 0.20146 0.569 0.567095 0.236397 -0.788999 
-0.0111689 0.175903 0.567 0.417016 0.0415278 -0.90795 
0.0729737 0.314343 0.549 0.561744 -0.553084 -0.615258 
0.0901092 0.283366 0.6 0.568974 0.421721 -0.705988 
-0.0230396 0.208883 0.543 0.530478 -0.00284041 -0.847694 
0.0726734 0.190335 0.623 0.433575 -0.612815 -0.660659 
-0.0324018 0.22931 0.543 0.0296357 0.235738 -0.971365 
0.0874926 0.215874 0.609 0.213065 -0.445603 -0.869506 
-0.0239531 0.204986 0.544 0.340586 -0.668708 -0.660932 
-0.00530577 0.25538 0.548 -0.00152338 -0.872905 -0.487888 
-0.0562598 0.166462 0.565 0.250532 -0.270706 -0.92949 
-0.0546027 0.166738 0.566 0.202076 0.00324027 -0.979365 
-0.0520507 0.167015 0.567 0.58903 -0.234999 -0.773188 
-0.0511619 0.167015 0.567 0.0686941 -0.419908 -0.904963 
-0.0502732 0.167015 0.567 -0.0791299 -0.580964 -0.810074 
-0.0484957 0.167015 0.567 0.213099 -0.584842 -0.782655 
-0.0477086 0.167292 0.568 0.418117 -0.305561 -0.855459 
-0.0468183 0.167292 0.568 -0.0279204 -0.294537 -0.955232 
-0.045928 0.167292 0.568 -0.241668 -0.278308 -0.929592 
-0.0450377 0.167292 0.568 0.0699715 -0.418595 -0.905474 
-0.0441474 0.167292 0.568 0.15024 -0.18244 -0.971671 
-0.0432571 0.167292 0.568 -0.113703 -0.176259 -0.977755 
-0.0396959 0.167292 0.568 0.0711454 -0.418266 -0.905534 
-0.0343477 0.192865 0.546 0.27994 -0.467962 -0.838239 
-0.0388056 0.167292 0.568 0.0983363 -0.180243 -0.978694 
-0.0379153 0.167292 0.568 -1.46035e-010 2.05341e-009 -1 
-0.0370249 0.167292 0.568 -1.45748e-010 2.05338e-009 -1 
-0.0352443 0.167292 0.568 1.16579e-010 2.05338e-009 -1 
-0.034354 0.167292 0.568 1.16579e-010 2.05338e-009 -1 
-0.0316831 0.167292 0.568 0.130605 -0.432856 -0.891952 
-0.0290122 0.167292 0.568 -0.159494 -0.17754 -0.971103 
-0.0272316 0.167292 0.568 0.0738181 -0.417172 -0.905825 
-0.0263413 0.167292 0.568 0.0695181 -0.587356 -0.806338 
-0.0245607 0.167292 0.568 -0.0765365 -0.581937 -0.809625 
-0.0236704 0.167292 0.568 -0.0764485 -0.582011 -0.80958 
-0.0227801 0.167292 0.568 0.0528199 -0.61888 -0.783708 
-0.0218898 0.167292 0.568 0.248396 -0.676519 -0.693269 
-0.0201622 0.167569 0.569 0.000119204 -0.851804 -0.523861 
0.0730016 0.255585 0.581 0.194481 0.376751 -0.905669 
-0.0192703 0.167569 0.569 0.000119209 -0.851804 -0.523861 
-0.0165947 0.167569 0.569 0.000119197 -0.851804 -0.523861 
-0.0408916 0.259767 0.552 -0.0050964 -0.87106 -0.491151 
-0.014811 0.167569 0.569 -0.161237 -0.821338 -0.547181 
-0.0207108 0.234355 0.547 -0.0060048 0.384303 -0.923187 
-0.0130273 0.167569 0.569 0.0211119 -0.609348 -0.792622 
-0.0121354 0.167569 0.569 0.0710216 -0.586221 -0.807032 
-0.0112435 0.167569 0.569 0.222112 -0.607319 -0.762778 
-0.0059761 0.1684 0.572 0.724746 -0.0978319 -0.682036 
-0.00510589 0.168677 0.573 0.532694 -0.0503768 -0.844807 
-0.00333284 0.168954 0.574 0.653478 -0.124006 -0.746719 
-0.00157361 0.169508 0.576 0.757944 -0.415494 -0.502878 
-0.000689293 0.169785 0.577 0.667612 -0.517338 -0.535402 
0.000198158 0.170062 0.578 0.572119 -0.611091 -0.547036 
0.00290383 0.170338 0.579 0.483377 -0.653603 -0.582366 
0.00380069 0.170615 0.58 0.488805 -0.668416 -0.560615 
0.00834054 0.171169 0.582 0.319024 -0.647363 -0.692203 
0.0528389 0.315235 0.534 0.0313233 -0.593534 -0.804199 
0.0101653 0.171446 0.583 0.210253 -0.559153 -0.801961 
0.0690524 0.244352 0.578 0.204676 -0.410557 -0.888567 
0.0129068 0.171446 0.583 -0.0712299 -0.57117 -0.817735 
0.0211693 0.172 0.585 0.349754 -0.724321 -0.594164 
0.0174886 0.171723 0.584 0.261005 -0.566826 -0.781399 
0.115183 0.204677 0.638 0.425896 -0.0064117 -0.904749 
0.0193354 0.172 0.585 0.274607 -0.682238 -0.677601 
0.0202523 0.172 0.585 0.28514 -0.691966 -0.663233 
-0.0391201 0.213614 0.542 -5.12816e-011 5.1274e-010 -1 
0.0258617 0.173108 0.589 0.239882 -0.377205 -0.894524 
0.0267849 0.173108 0.589 0.449903 -0.438603 -0.777956 
0.0377116 0.231004 0.567 0.0128581 -0.319888 -0.947368 
0.046728 0.266567 0.569 0.436253 -0.80734 -0.397347 
0.0305474 0.173662 0.591 0.491378 -0.502877 -0.711099 
0.03151 0.173938 0.592 0.272257 -0.673577 -0.687146 
0.032438 0.173938 0.592 0.117391 -0.785613 -0.607479 
0.0342938 0.173938 0.592 0.152542 -0.695656 -0.701992 
0.0352217 0.173938 0.592 0.207827 -0.545981 -0.811611 
0.0361938 0.174215 0.593 0.50078 -0.430077 -0.751168 
0.0251615 0.22768 0.563 0.604309 -0.385455 -0.697306 
0.0381001 0.174492 0.594 0.599212 -0.440099 -0.668773 
0.00582286 0.251551 0.553 0.237967 -0.908148 -0.344439 
0.0409973 0.175046 0.596 0.60289 -0.51382 -0.610338 
0.0420386 0.1756 0.598 0.789382 -0.444815 -0.423103 
0.0430311 0.175877 0.599 0.78512 -0.453882 -0.421399 
0.0450837 0.176708 0.602 0.84473 -0.323138 -0.426629 
0.0471551 0.177538 0.605 0.508341 -0.345874 -0.788644 
0.0729704 0.214968 0.598 0.449817 -0.775997 -0.442146 
0.0491163 0.177815 0.606 0.507063 -0.345014 -0.789843 
0.0521044 0.178369 0.608 0.66799 -0.0899608 -0.738713 
0.0514286 0.216014 0.585 0.367272 -0.56936 -0.735487 
0.0540828 0.178646 0.609 0.486711 -0.0462912 -0.872336 
0.0551113 0.178923 0.61 0.600047 -0.0384848 -0.799039 
0.0571777 0.179477 0.612 0.725511 -0.0704362 -0.684596 
0.0592567 0.180031 0.614 0.813078 -0.0488901 -0.580098 
0.0603827 0.180585 0.616 0.811226 0.0364192 -0.583597 
0.0636253 0.181692 0.62 0.553426 0.127331 -0.823108 
0.0433354 0.26254 0.572 0.533068 -0.53417 -0.656125 
0.0656585 0.181969 0.621 0.499915 0.339786 -0.796637 
0.067698 0.182246 0.622 0.579548 0.218621 -0.785066 
0.0731764 0.183908 0.628 0.738201 -0.0826443 -0.669499 
0.0742629 0.184185 0.629 0.664514 -0.197495 -0.720706 
0.07634 0.184462 0.63 0.359042 -0.37858 -0.853092 
0.0773275 0.184462 0.63 0.207883 -0.449447 -0.868782 
0.0794125 0.184738 0.631 0.354683 -0.508767 -0.784446 
0.0815037 0.185015 0.632 0.236383 -0.420172 -0.876115 
0.0834849 0.185015 0.632 0.335815 -0.555178 -0.760924 
0.0865778 0.185292 0.633 0.454123 -0.527378 -0.718084 
0.0555414 0.228421 0.579 0.490455 -0.152003 -0.858108 
0.114353 0.224908 0.627 0.245845 -0.424723 -0.871304 
0.0876925 0.185569 0.634 0.491235 -0.504823 -0.709819 
0.0931828 0.186677 0.638 0.605754 -0.243418 -0.757502 
0.0954498 0.187231 0.64 0.64716 -0.220027 -0.729912 
0.0342503 0.27562 0.549 -0.46912 -0.548501 -0.692152 
0.0987358 0.187785 0.642 0.20335 -0.266258 -0.942208 
0.099742 0.187785 0.642 0.203304 -0.266048 -0.942277 
0.101898 0.188062 0.643 0.195569 -0.414907 -0.888597 
0.103913 0.188062 0.643 0.206949 -0.588898 -0.781263 
0.104921 0.188062 0.643 0.196177 -0.63415 -0.747909 
0.108097 0.188338 0.644 0.343561 -0.440104 -0.829623 
0.109106 0.188338 0.644 0.485861 -0.425675 -0.763374 
0.111282 0.188615 0.645 0.180925 -0.608277 -0.772829 
0.114639 0.189169 0.647 0.535197 -0.564397 -0.628506 
0.116832 0.189446 0.648 0.592613 -0.56764 -0.571484 
0.0367574 0.202259 0.585 0.645506 -0.645274 -0.408586 
-0.0173311 0.256239 0.548 -0.0850597 -0.857784 -0.506924 
-0.0437617 0.262187 0.546 -0.265975 -0.930692 -0.251136 
0.0712527 0.307459 0.549 0.669453 -0.370743 -0.643725 
0.0696654 0.226646 0.584 0.377407 -0.156314 -0.91276 
0.0617149 0.259321 0.577 0.43456 0.265252 -0.860697 
0.0720909 0.264692 0.581 0.501788 -0.556141 -0.662508 
-0.0594101 0.303328 0.516 0.0177193 -0.867919 -0.49639 
-0.0558636 0.253217 0.547 0.15941 -0.166551 -0.973062 
-0.0504091 0.243327 0.552 -0.052455 0.359302 -0.931746 
0.082178 0.271892 0.589 0.513434 -0.511862 -0.688755 
0.0936582 0.305563 0.579 0.74233 -0.216768 -0.634001 
-0.0538037 0.177943 0.559 -0.358755 -0.660147 -0.659925 
-0.047604 0.24162 0.55 -0.218419 0.563835 -0.796482 
0.0905094 0.227361 0.596 0.709391 -0.524725 -0.470562 
0.104586 0.201469 0.634 0.218904 -0.313384 -0.924052 
-0.0276386 0.245072 0.548 -0.311453 0.462352 -0.830197 
0.0606131 0.287222 0.555 9.16883e-011 3.91157e-009 -1 
0.000292565 0.288164 0.524 -0.00362205 -0.218204 -0.975896 
-0.00197826 0.249818 0.553 -0.256382 -0.54645 -0.797283 
0.00667767 0.251555 0.555 0.207534 -0.843931 -0.494681 
0.0537263 0.226606 0.579 0.4851 -0.230243 -0.843603 
-0.0267125 0.245501 0.547 -0.487807 0.377571 -0.787073 
0.103888 0.199083 0.636 0.116223 -0.788805 -0.603555 
0.115732 0.33199 0.596 0.92809 -0.0622493 -0.367116 
0.0418201 0.280159 0.546 0.00877282 -0.58079 -0.814006 
-0.00867318 0.209982 0.546 0.240861 -0.329136 -0.913047 
-0.0172451 0.176793 0.564 0.236602 -0.813537 -0.531204 
0.0816879 0.291203 0.585 0.9209 -0.334439 -0.200233 
-0.0265761 0.18289 0.558 0.35286 -0.736219 -0.577471 
-0.0581514 0.167626 0.566 -0.350925 0.153114 -0.923801 
-0.0562598 0.167347 0.565 0.346279 0.297916 -0.889571 
-0.0546027 0.167626 0.566 0.185837 0.163303 -0.968915 
-0.0537155 0.167626 0.566 -0 -0 -1 
0.0739775 0.232571 0.59 0.431087 0.260836 -0.863787 
-0.0528284 0.167626 0.566 0.41819 -0.152495 -0.895468 
-0.0511619 0.167904 0.567 0.0673271 -0.591266 -0.803661 
-0.0484957 0.167904 0.567 0.150206 -0.183122 -0.971547 
0.0495873 0.271696 0.559 -0.280004 -0.742874 -0.608059 
-0.047607 0.167904 0.567 0.32819 -0.399996 -0.855742 
-0.0468183 0.168183 0.568 -0.0188538 -0.498607 -0.866623 
-0.0458295 0.167904 0.567 -0.035335 -0.608051 -0.793111 
-0.0432571 0.168183 0.568 -0.226534 -0.449658 -0.863996 
-0.0422746 0.167904 0.567 -0.216302 -0.561312 -0.798838 
-0.0413858 0.167904 0.567 -0.0783212 -0.581986 -0.809418 
0.063431 0.249861 0.576 0.494574 -0.150115 -0.856073 
-0.056721 0.234355 0.547 -0.299557 0.48293 -0.822827 
0.031401 0.196188 0.589 0.676767 0.00786177 -0.736156 
-0.0404971 0.167904 0.567 0.0682086 -0.589841 -0.804633 
-0.0361346 0.168183 0.568 0.0688301 -0.589297 -0.804979 
-0.034354 0.168183 0.568 -0.0778215 -0.582343 -0.809209 
-0.0325734 0.168183 0.568 -0.03257 -0.608624 -0.79279 
0.0541667 0.304275 0.54 0.434118 -0.691549 -0.577323 
0.0381514 0.217358 0.576 0.639479 -0.347775 -0.685653 
-0.0316098 0.167904 0.567 -0.0138094 -0.499232 -0.866358 
-0.0307928 0.168183 0.568 0.0179928 -0.61122 -0.791256 
-0.0290122 0.168183 0.568 0.0695534 -0.588807 -0.805275 
-0.0272316 0.168183 0.568 -0.0771329 -0.582945 -0.808842 
-0.0263413 0.168183 0.568 -0.0770464 -0.58302 -0.808797 
0.0244075 0.285618 0.535 0.461742 -0.57239 -0.677616 
-0.0245607 0.168183 0.568 0.070005 -0.588496 -0.805464 
-0.0236704 0.168183 0.568 0.0700954 -0.588433 -0.805502 
-0.0227801 0.168183 0.568 -0.0767017 -0.583317 -0.808615 
-0.0237089 0.188598 0.554 0.229137 -0.326574 -0.916976 
-0.0218898 0.168183 0.568 0.153393 -0.726452 -0.669879 
-0.0201092 0.168183 0.568 -0.000242212 -0.852943 -0.522004 
0.0669192 0.236715 0.584 0.585437 -0.507749 -0.632024 
-0.0470166 0.298821 0.521 -0.321652 -0.0184924 -0.946677 
-0.0183286 0.168183 0.568 0.0243148 -0.754551 -0.65579 
-0.0112062 0.168183 0.568 0.214308 -0.464497 -0.859252 
-0.0103517 0.168461 0.569 0.529498 -0.457657 -0.71427 
-0.00860055 0.16874 0.57 0.65131 -0.36055 -0.667682 
-0.0059761 0.169297 0.572 0.72526 -0.0608545 -0.68578 
-0.00333284 0.169854 0.574 0.540599 -0.181776 -0.821407 
-0.00155352 0.170132 0.575 0.762184 -0.35231 -0.543097 
0.00407859 0.219859 0.554 0.726063 -0.0586885 -0.685119 
-0.000670768 0.170411 0.576 0.648289 -0.497934 -0.576006 
0.00111953 0.170689 0.577 0.388822 -0.786844 -0.479264 
0.00201011 0.170968 0.578 0.448023 -0.734345 -0.509914 
0.00290383 0.171246 0.579 0.513547 -0.63622 -0.575755 
0.00381137 0.171246 0.579 0.433272 -0.671411 -0.601234 
0.0047098 0.171525 0.58 0.408228 -0.691891 -0.595514 
0.00561891 0.171525 0.58 0.382695 -0.659772 -0.646719 
0.00925279 0.172081 0.582 0.384734 -0.542393 -0.746853 
0.0129068 0.17236 0.583 0.0720379 -0.571678 -0.81731 
0.0138206 0.17236 0.583 0.178689 -0.389326 -0.903601 
0.0147344 0.17236 0.583 0.256035 -0.387159 -0.88575 
0.0156482 0.17236 0.583 0.178648 -0.388882 -0.903801 
0.016562 0.17236 0.583 0.210212 -0.557321 -0.803246 
0.0193194 0.172638 0.584 0.124152 -0.704245 -0.699017 
0.0258617 0.174031 0.589 0.347322 -0.427721 -0.834519 
0.0295878 0.174309 0.59 0.607307 -0.56496 -0.558569 
0.0324001 0.174588 0.591 0.117537 -0.786667 -0.606086 
0.0560293 0.300268 0.542 0.503496 0.00472372 -0.863985 
0.0333264 0.174588 0.591 0.27271 -0.673756 -0.686791 
-0.0272951 0.226756 0.543 -0.159709 0.453788 -0.876681 
-0.0300968 0.290628 0.524 -0.0037213 -0.921913 -0.38738 
0.0361496 0.174866 0.592 0.377045 -0.525127 -0.762941 
0.041985 0.176259 0.597 0.832111 -0.240694 -0.499658 
0.0430311 0.176816 0.599 0.801798 -0.320349 -0.504477 
0.0471551 0.178487 0.605 0.50082 -0.167752 -0.84914 
0.0481034 0.178487 0.605 0.521515 -0.203751 -0.828557 
0.0491163 0.178765 0.606 0.499499 -0.167299 -0.850007 
0.0500662 0.178765 0.606 0.6037 -0.11415 -0.788997 
0.0521044 0.179322 0.608 0.69927 0.000139531 -0.714857 
0.10026 0.269523 0.605 0.208882 -0.685002 -0.697955 
0.0531282 0.179601 0.609 0.471831 0.0683663 -0.879035 
0.0540828 0.179601 0.609 0.486741 -0.0462285 -0.872322 
0.0550851 0.271338 0.562 0.412259 -0.906645 -0.089647 
0.0551113 0.179879 0.61 0.583349 0.0662266 -0.809517 
0.0571777 0.180436 0.612 0.74468 -0.0217156 -0.667068 
0.0495421 0.231668 0.571 0.744403 -0.372371 -0.55426 
0.0292226 0.201195 0.579 0.544863 -0.55828 -0.625658 
0.0582157 0.180715 0.613 0.693223 5.12392e-005 -0.720723 
0.0592567 0.180993 0.614 0.8064 -0.0206405 -0.591011 
0.0603827 0.18155 0.616 0.805367 0.00281097 -0.59277 
0.0636253 0.182664 0.62 0.625924 0.0665973 -0.777035 
0.0677908 0.1835 0.623 0.610085 0.186044 -0.770184 
0.0688616 0.183778 0.624 0.684364 0.178618 -0.706924 
0.0710127 0.184335 0.626 0.679824 0.00013877 -0.733376 
0.0752488 0.185171 0.629 0.461866 -0.470579 -0.751822 
0.0251036 0.289688 0.53 0.357555 -0.864375 -0.353567 
0.078315 0.185449 0.63 0.359179 -0.378243 -0.853184 
0.0802899 0.185449 0.63 0.237124 -0.421417 -0.875317 
0.0813906 0.185728 0.631 0.347941 -0.606963 -0.714516 
0.0833687 0.185728 0.631 0.324859 -0.600946 -0.730295 
0.0844755 0.186006 0.632 0.467194 -0.399263 -0.788872 
0.0854662 0.186006 0.632 0.346401 -0.48782 -0.801273 
0.00322248 0.223814 0.553 0.581537 -0.430144 -0.690501 
0.0886862 0.186563 0.634 0.491174 -0.504807 -0.709872 
0.0919251 0.18712 0.636 0.717667 -0.364955 -0.593096 
0.0930524 0.187398 0.637 0.657293 -0.310863 -0.686535 
0.0941828 0.187677 0.638 0.673648 -0.269012 -0.688354 
0.0953163 0.187955 0.639 0.703629 -0.201275 -0.681465 
0.096453 0.188234 0.64 0.582916 -0.339873 -0.738035 
0.0975928 0.188512 0.641 0.647146 -0.338225 -0.683232 
0.0586676 0.302506 0.543 0.27463 -0.314297 -0.908733 
0.108499 0.265137 0.615 0.721847 -0.151585 -0.675247 
0.101755 0.188791 0.642 0.206706 -0.437798 -0.874989 
0.103913 0.189069 0.643 0.0241148 -0.41741 -0.908398 
0.104774 0.188791 0.642 0.164957 -0.629489 -0.759298 
-0.0593115 0.189466 0.554 1.87765e-010 2.01555e-010 -1 
0.107945 0.189069 0.643 0.319639 -0.587375 -0.74352 
0.0617149 0.266556 0.577 -0.44047 -0.531595 -0.723459 
0.109106 0.189348 0.644 0.455619 -0.388408 -0.800969 
0.0674467 0.204419 0.609 0.516386 -0.529433 -0.673087 
-0.000152051 0.229611 0.548 0.589846 -0.434871 -0.680418 
0.00113086 0.294191 0.523 6.88333e-012 1.10124e-009 -1 
0.112293 0.189626 0.645 0.342949 -0.438817 -0.830558 
0.116667 0.190183 0.647 0.593835 -0.439568 -0.673899 
0.118014 0.19074 0.649 0.695502 -0.370953 -0.615362 
0.119199 0.191019 0.65 0.64109 -0.470748 -0.606135 
-0.0258551 0.254075 0.547 -0.250389 -0.51691 -0.818602 
-0.0103848 0.223675 0.546 0.242225 -0.4452 -0.862046 
-0.0166468 0.305277 0.518 0.422327 -0.0800239 -0.902904 
-0.0253176 0.193144 0.552 0.27578 -0.509083 -0.81534 
0.0525229 0.26747 0.575 0.35795 -0.747886 -0.559051 
-0.00333991 0.271984 0.538 0.592946 -0.497594 -0.633099 
0.101547 0.248025 0.601 0.695345 -0.399935 -0.597116 
0.101576 0.21508 0.627 -0.306534 -0.877273 -0.369362 
0.0312251 0.26602 0.56 0.540495 -0.618808 -0.570037 
0.0782816 0.208255 0.612 0.405372 -0.754538 -0.516087 
0.0478349 0.271696 0.559 0.00749911 -0.699354 -0.714736 
-0.0299953 0.258308 0.545 0.000224187 -0.928856 -0.370441 
-0.0215682 0.236927 0.547 -0 -0 -1 
-0.0240779 0.203135 0.546 0.537432 -0.62924 -0.561448 
0.0753164 0.321808 0.547 0.796009 -0.0348364 -0.604282 
-0.0251257 0.198173 0.549 0.433291 -0.387652 -0.813624 
0.00241099 0.228291 0.549 0.287506 -0.51515 -0.807441 
0.0681949 0.294615 0.561 0.866049 -0.4295 -0.255908 
0.0795262 0.224248 0.59 0.506507 -0.426947 -0.749111 
-0.0175648 0.297452 0.52 -0.277413 -0.752089 -0.597833 
0.0181306 0.207199 0.565 0.398728 -0.563928 -0.723188 
-0.0352036 0.196289 0.546 -0.0108513 -0.54556 -0.838002 
-0.0257896 0.244214 0.546 -0.475227 0.189296 -0.859259 
-0.0227224 0.169682 0.567 0.0771334 -0.443381 -0.893008 
0.00356565 0.289518 0.525 0.244307 -0.117718 -0.962526 
-0.0575748 0.185993 0.554 0.245813 -0.398844 -0.883459 
-0.0599257 0.168513 0.566 -0.17138 0.110127 -0.979031 
-0.0554899 0.168513 0.566 0.169026 0.112197 -0.979205 
-0.0546027 0.168513 0.566 0.149742 -0.183388 -0.971569 
-0.0537155 0.168513 0.566 -0 -0 -1 
-0.0519412 0.168513 0.566 0.216495 -0.296534 -0.93016 
-0.0501669 0.168513 0.566 0.208245 -0.473834 -0.855638 
-0.0493844 0.168793 0.567 0.213721 -0.586546 -0.781209 
-0.047607 0.168793 0.567 0.061083 -0.74543 -0.663779 
-0.0213284 0.185514 0.558 0.192897 -0.746542 -0.636762 
-0.0467182 0.168793 0.567 0.0385433 -0.746336 -0.664452 
-0.0458295 0.168793 0.567 -0.159389 -0.713125 -0.682677 
-0.00284505 0.20041 0.553 -0.00298185 -0.538856 -0.842393 
-0.0449408 0.168793 0.567 0.0614016 -0.745258 -0.663943 
-0.0404971 0.168793 0.567 -0 -0 -1 
-0.0387196 0.168793 0.567 0.219618 -0.294085 -0.930205 
-0.0378309 0.168793 0.567 -0.0148232 -0.449899 -0.892957 
-0.0360534 0.168793 0.567 -0.0142581 -0.449944 -0.892943 
-0.0351647 0.168793 0.567 -0.0139878 -0.449966 -0.892936 
-0.0333872 0.168793 0.567 -0.0134333 -0.450008 -0.892924 
0.0696654 0.227561 0.584 0.360655 0.0747077 -0.929702 
-0.0324985 0.168793 0.567 -0.0909179 -0.411621 -0.906809 
-0.0289435 0.168793 0.567 0.000176845 -0.85428 -0.519812 
-0.0271661 0.168793 0.567 0.117733 -0.811323 -0.572621 
-0.0244999 0.168793 0.567 0.153317 -0.727997 -0.668218 
-0.0236111 0.168793 0.567 -0.0766867 -0.583984 -0.808134 
-0.0218337 0.168793 0.567 -0.0223781 -0.574841 -0.817959 
-0.0209449 0.168793 0.567 0.0645803 -0.743073 -0.666086 
-0.0120965 0.169073 0.568 3.64759e-011 1.86882e-009 -1 
-0.0112062 0.169073 0.568 0.153869 -0.180764 -0.971416 
-0.0273638 0.229714 0.544 6.91001e-011 -5.98052e-012 -1 
-0.00860055 0.169633 0.57 0.661323 -0.245366 -0.708836 
-0.00507952 0.170193 0.572 0.410026 -0.293372 -0.863604 
-0.00330961 0.170473 0.573 0.558015 -0.353005 -0.751003 
-0.00243313 0.170753 0.574 0.674844 -0.297124 -0.675502 
-0.000652242 0.171033 0.575 0.424565 -0.6153 -0.664192 
0.000232074 0.171313 0.576 0.375522 -0.74238 -0.554847 
-0.0534452 0.220022 0.541 -0.508501 -0.236455 -0.827959 
0.00113492 0.171313 0.576 0.445623 -0.713694 -0.540427 
0.00382206 0.171874 0.578 0.538748 -0.691613 -0.481064 
0.00562646 0.172154 0.579 0.501077 -0.619376 -0.604397 
0.00652802 0.172434 0.58 0.450341 -0.519628 -0.726071 
0.00834339 0.172714 0.581 0.50321 -0.516025 -0.69318 
0.0110773 0.172994 0.582 0.262425 -0.571048 -0.777841 
0.0119895 0.172994 0.582 0.221007 -0.58838 -0.777795 
0.0156482 0.173274 0.583 0.0723742 -0.571952 -0.817088 
0.016562 0.173274 0.583 0.0673506 -0.725944 -0.684449 
-0.0354087 0.295272 0.519 -0.00411098 -0.929742 -0.368189 
0.0248878 0.174394 0.587 0.21233 -0.388364 -0.89671 
0.0258348 0.174674 0.588 0.178871 -0.723281 -0.666986 
0.077555 0.284727 0.581 0.845628 -0.486886 -0.218757 
0.0285997 0.174674 0.588 0.242906 -0.643473 -0.725906 
0.0295546 0.174954 0.589 0.590783 -0.58472 -0.555947 
0.0305126 0.175234 0.59 0.305046 -0.747052 -0.590644 
0.0314374 0.175234 0.59 0.178301 -0.719535 -0.671176 
0.0323622 0.175234 0.59 0.273349 -0.675352 -0.684967 
0.0333264 0.175514 0.591 0.273122 -0.674705 -0.685695 
0.0342528 0.175514 0.591 0.356355 -0.596089 -0.719506 
0.0351791 0.175514 0.591 0.27308 -0.673581 -0.686816 
0.0284732 0.195523 0.584 0.726311 -0.000115586 -0.687366 
0.0361496 0.175794 0.592 0.501946 -0.430824 -0.749961 
0.0208259 0.298841 0.524 0.238666 -0.8536 -0.46304 
0.0390312 0.176354 0.594 0.614182 -0.338331 -0.71296 
0.0400127 0.176635 0.595 0.61433 -0.28458 -0.735944 
0.0409453 0.176635 0.595 0.642023 -0.326432 -0.693721 
0.041985 0.177195 0.597 0.828877 -0.243103 -0.503849 
0.0440267 0.178035 0.6 0.834104 -0.103362 -0.541837 
0.0450837 0.178595 0.602 0.878489 -0.140976 -0.456489 
0.0470937 0.179155 0.604 0.609887 -0.225277 -0.759795 
0.0510837 0.179995 0.607 0.700402 -0.000147084 -0.713748 
0.0561429 0.181115 0.611 0.716751 -0.0718063 -0.693622 
0.0571006 0.181115 0.611 0.775454 -0.0623229 -0.628321 
0.10914 0.241247 0.613 0.691943 -0.330345 -0.64194 
0.0614316 0.182796 0.617 0.72579 -0.101496 -0.680388 
0.0624836 0.183076 0.618 0.81485 -0.130188 -0.564863 
0.0636253 0.183636 0.62 0.609732 0.0284933 -0.792095 
0.0646852 0.183916 0.621 0.665091 0.0483972 -0.745192 
0.0657482 0.184196 0.622 0.440782 0.148045 -0.885321 
0.0677908 0.184476 0.623 0.683048 0.000138407 -0.730374 
0.0688616 0.184756 0.624 0.681964 0.000139558 -0.731386 
0.0699356 0.185036 0.625 0.708898 -0.124415 -0.694251 
0.072093 0.185596 0.627 0.48145 -0.179634 -0.857868 
0.0649904 0.20723 0.603 0.286175 -0.912585 -0.29205 
0.0741607 0.185876 0.628 0.66404 -0.347671 -0.661949 
0.0772206 0.186156 0.629 0.326186 -0.604278 -0.726946 
0.078315 0.186437 0.63 0.198377 -0.510229 -0.836847 
0.0822649 0.186437 0.63 0.18603 -0.575488 -0.79637 
0.0843577 0.186717 0.631 0.459299 -0.467169 -0.755512 
0.0854662 0.186997 0.632 0.198186 -0.424196 -0.883618 
0.0570293 0.243135 0.575 0.371023 -0.678762 -0.633738 
0.0874474 0.186997 0.632 0.404328 -0.366611 -0.837923 
0.0885621 0.187277 0.633 0.551323 -0.470787 -0.688769 
0.08968 0.187557 0.634 0.491301 -0.5048 -0.709789 
0.0906737 0.187557 0.634 0.603931 -0.444804 -0.661374 
0.0601373 0.197049 0.613 0.368739 -0.540847 -0.755987 
0.029852 0.218243 0.571 0.866825 -0.195423 -0.458719 
0.0930524 0.188397 0.637 0.687278 -0.434124 -0.582397 
0.0352662 0.249091 0.572 6.66377e-005 0.605386 -0.795932 
0.096453 0.189237 0.64 0.59722 -0.342025 -0.725497 
0.0974562 0.189237 0.64 0.521245 -0.453112 -0.723183 
0.0985975 0.189517 0.641 0.544783 -0.4648 -0.697977 
0.101755 0.189797 0.642 0.0116266 -0.567144 -0.823537 
0.102761 0.189797 0.642 0.345305 -0.442655 -0.827539 
0.104774 0.189797 0.642 0.035695 -0.553487 -0.832093 
0.10578 0.189797 0.642 0.341009 -0.477385 -0.809825 
0.107945 0.190077 0.643 0.456544 -0.389037 -0.800136 
0.112135 0.190357 0.644 0.184551 -0.560422 -0.807384 
0.113304 0.190637 0.645 0.454465 -0.387038 -0.802286 
0.119031 0.191758 0.649 0.679067 -0.431515 -0.593854 
-0.0263197 0.296604 0.517 0.519368 -0.513273 -0.683233 
0.0268664 0.23658 0.561 0.548403 0.179587 -0.816702 
0.0437998 0.191862 0.596 0.597753 -0.0641278 -0.799112 
0.0322213 0.262979 0.563 0.00543122 -0.552442 -0.833534 
0.0517581 0.197778 0.603 0.715258 -0.343387 -0.60868 
0.0321029 0.266897 0.56 0.367732 -0.733657 -0.57142 
0.0525969 0.232707 0.576 0.794439 -0.334436 -0.50697 
-0.0558488 0.272056 0.533 -0.454855 -0.371243 -0.809497 
-0.0296503 0.288331 0.529 -0.383448 -0.401307 -0.831818 
0.0823907 0.30042 0.576 -0.14312 -0.988311 0.0525159 
0.0399982 0.291107 0.544 0.427437 -0.68647 -0.588266 
-0.059308 0.179423 0.561 -0.494285 -0.569176 -0.657055 
-0.0438478 0.28138 0.53 -0.019144 -0.215932 -0.976221 
-0.00109138 0.244193 0.552 0.187589 0.466893 -0.864188 
-0.0248058 0.258705 0.544 -0.209172 -0.817437 -0.536697 
-0.00539778 0.295284 0.522 8.64056e-012 -1.32738e-009 -1 
0.00932083 0.290818 0.529 0.277637 -0.467963 -0.839004 
-0.0599257 0.1694 0.566 -0 -0 -1 
0.0359713 0.27562 0.549 -0.457438 -0.391951 -0.798201 
-0.0572642 0.1694 0.566 -0.0193214 0.171328 -0.985025 
-0.0563771 0.1694 0.566 -0.242804 0.137711 -0.960251 
-0.0553742 0.169118 0.565 -0.100953 -0.393505 -0.913763 
-0.0537155 0.1694 0.566 0.216356 -0.296723 -0.930132 
-0.051054 0.1694 0.566 -0 -0 -1 
-0.0501669 0.1694 0.566 0.207001 -0.133622 -0.969173 
-0.0492797 0.1694 0.566 0.217389 -0.296114 -0.930085 
-0.0483925 0.1694 0.566 -0.0181966 -0.450616 -0.892533 
-0.0466182 0.1694 0.566 -0.0176468 -0.450671 -0.892516 
-0.0413858 0.169682 0.567 0.214216 -0.58532 -0.781992 
-0.0378309 0.169682 0.567 -0 -0 -1 
-0.0221292 0.22126 0.542 0.461975 -0.282275 -0.840773 
-0.0351647 0.169682 0.567 -0.160467 -0.176817 -0.971075 
-0.034276 0.169682 0.567 -0.0357049 -0.176627 -0.98363 
-0.0324985 0.169682 0.567 -0.188244 -0.395767 -0.898851 
-0.0316098 0.169682 0.567 -0.216757 -0.56529 -0.795904 
0.0569465 0.196783 0.609 0.614707 -0.470405 -0.633131 
-0.029762 0.1694 0.566 -0.0123974 -0.45111 -0.892382 
0.026044 0.255037 0.563 -0.159344 -0.488251 -0.858033 
-0.0262773 0.169682 0.567 0.120973 -0.612162 -0.781424 
-0.0253262 0.1694 0.566 -0.0118223 -0.500994 -0.86537 
-0.0244999 0.169682 0.567 0.0191432 -0.613227 -0.789674 
0.00927461 0.191258 0.565 0.217509 0.128958 -0.967502 
-0.0217775 0.1694 0.566 -0.0217064 -0.414345 -0.909861 
-0.0209449 0.169682 0.567 0.077455 -0.443133 -0.893104 
-0.0200562 0.169682 0.567 0.180821 -0.407505 -0.895122 
-0.0191675 0.169682 0.567 0.165151 -0.398246 -0.902289 
-0.0116686 0.191311 0.557 0.225302 -0.480599 -0.847505 
-0.0165013 0.169682 0.567 0.0588951 -0.162406 -0.984965 
-0.0138351 0.169682 0.567 0.246408 -0.320056 -0.914794 
-0.0120965 0.169963 0.568 0.226051 -0.289787 -0.930013 
0.0207874 0.20897 0.565 0.193733 -0.608667 -0.76941 
-0.0112062 0.169963 0.568 0.211906 -0.130969 -0.968475 
-0.0103159 0.169963 0.568 0.30942 -0.169729 -0.935656 
-0.00856791 0.170245 0.569 0.641824 -0.308295 -0.702151 
-0.00770711 0.170526 0.57 0.650427 -0.295817 -0.699597 
-0.00684317 0.170808 0.571 0.679059 -0.203241 -0.705387 
-0.0059761 0.17109 0.572 0.400236 -0.161484 -0.902072 
-0.00418295 0.17109 0.572 0.542002 -0.182104 -0.820409 
-0.00330961 0.171371 0.573 0.54672 -0.374565 -0.748865 
0.0210738 0.177888 0.58 0.659907 -0.288381 -0.693801 
-0.00241147 0.171371 0.573 0.419403 -0.310671 -0.852986 
0.00115031 0.171935 0.575 0.388379 -0.585177 -0.711849 
0.00203776 0.172216 0.576 0.512591 -0.556276 -0.65407 
0.00743713 0.173343 0.58 0.384637 -0.565304 -0.729716 
0.0101647 0.173624 0.581 0.376947 -0.542343 -0.750849 
0.0110754 0.173624 0.581 0.211136 -0.560953 -0.800471 
0.013814 0.173906 0.582 0.0672436 -0.727791 -0.682495 
0.0147263 0.173906 0.582 0.218526 -0.709724 -0.66973 
0.0192875 0.173906 0.582 -0.00288035 -0.773229 -0.63412 
0.0229809 0.174469 0.584 0.673767 -0.466575 -0.573015 
0.0713 0.211891 0.6 0.431811 -0.774793 -0.461773 
0.0248878 0.175314 0.587 0.245103 -0.382691 -0.89077 
0.0258079 0.175314 0.587 0.224039 -0.274651 -0.935079 
-0.0535801 0.26633 0.535 -0.233964 -0.768465 -0.595585 
0.026728 0.175314 0.587 0.212857 -0.443087 -0.870842 
0.0295214 0.175596 0.588 0.408149 -0.589935 -0.6967 
0.031401 0.175877 0.589 0.343807 -0.643244 -0.68413 
0.0332869 0.176159 0.59 0.357134 -0.597421 -0.718014 
-0.0392503 0.253285 0.553 0.48454 0.495001 -0.721246 
0.0351791 0.176441 0.591 0.503136 -0.431749 -0.74863 
0.0370776 0.176722 0.592 0.616463 -0.339593 -0.710387 
0.0380528 0.177004 0.593 0.692127 -0.275331 -0.667198 
0.0399622 0.177285 0.594 0.619924 -0.22877 -0.750572 
0.0409453 0.177567 0.595 0.708663 -0.206961 -0.67451 
0.00168898 0.271265 0.54 0.261371 -0.455846 -0.850817 
0.041985 0.17813 0.597 0.831367 0.0292736 -0.554953 
0.101284 0.215405 0.625 -0.279425 -0.830613 -0.481668 
0.0429759 0.178412 0.598 0.865401 -0.00215643 -0.501075 
0.0440267 0.178975 0.6 0.77763 -0.0169078 -0.628495 
0.0450254 0.179257 0.601 0.830082 -0.104951 -0.547676 
0.0460872 0.17982 0.603 0.743735 -0.2178 -0.631999 
0.0470937 0.180102 0.604 0.68888 -0.236537 -0.685196 
0.0490517 0.180383 0.605 0.490895 -0.0464096 -0.869982 
0.0510837 0.180947 0.607 0.700361 0.000147348 -0.713789 
-0.0416688 0.210216 0.542 4.52618e-010 8.97318e-010 -1 
0.0521044 0.181228 0.608 0.69931 -0.000139489 -0.714819 
0.0540828 0.18151 0.609 0.47093 0.0681977 -0.87953 
0.0551113 0.181791 0.61 0.599407 -0.113273 -0.792389 
0.0560674 0.181791 0.61 0.453395 -0.0742458 -0.888212 
0.0592567 0.182918 0.614 0.702194 -0.147002 -0.696645 
0.0603827 0.183481 0.616 0.753658 -0.201796 -0.625522 
0.0624836 0.184045 0.618 0.842056 -0.119059 -0.526086 
0.0645971 0.184608 0.62 0.728653 -0.130919 -0.672254 
0.0657482 0.185171 0.622 0.455466 -0.0519223 -0.888737 
0.0667231 0.185171 0.622 0.459919 0.0663385 -0.88548 
0.0710127 0.186298 0.626 0.622576 -0.250136 -0.741506 
0.0740585 0.186579 0.627 0.490376 -0.338683 -0.803011 
0.0761294 0.186861 0.628 0.326769 -0.605502 -0.725665 
0.0782065 0.187142 0.629 0.338239 -0.559496 -0.756676 
0.0791924 0.187142 0.629 0.326323 -0.604281 -0.726883 
0.0812774 0.187424 0.63 0.0110965 -0.463684 -0.885931 
0.0822649 0.187424 0.63 0.352453 -0.454527 -0.818036 
0.0832524 0.187424 0.63 0.46894 -0.400454 -0.78723 
0.0843577 0.187706 0.631 0.468343 -0.400144 -0.787743 
-0.0431966 0.185265 0.549 -0.110967 0.236759 -0.965211 
0.088438 0.187987 0.632 0.395734 -0.467557 -0.790433 
0.0917963 0.188832 0.635 0.67676 -0.39526 -0.6211 
-0.00812599 0.279719 0.53 -0.0018313 -0.901959 -0.431818 
-0.0247418 0.259099 0.543 -0.232457 -0.707427 -0.667466 
0.0951828 0.189677 0.638 0.6421 -0.459987 -0.613286 
0.0453742 0.223678 0.576 0.408082 -0.3534 -0.841771 
0.116274 0.272493 0.621 0.534732 -0.220605 -0.815718 
0.0974562 0.19024 0.64 0.486901 -0.500321 -0.715965 
0.0996023 0.190522 0.641 0.449423 -0.520215 -0.72622 
-0.0281463 0.227607 0.543 0.011978 0.448711 -0.893597 
0.101612 0.190522 0.641 0.0169299 -0.642867 -0.765791 
0.103767 0.190804 0.642 0.0185343 -0.610407 -0.791871 
0.0510745 0.219707 0.58 0.491322 -0.653785 -0.575471 
0.104626 0.190522 0.641 0.0188037 -0.611072 -0.791351 
0.106786 0.190804 0.642 0.351375 -0.366632 -0.861462 
0.10996 0.191085 0.643 0.448816 -0.454742 -0.769269 
0.111125 0.191367 0.644 0.184877 -0.561 -0.806908 
0.113144 0.191367 0.644 0.447549 -0.453553 -0.770707 
0.0349235 0.183003 0.585 0.742993 -0.424723 -0.517273 
0.114315 0.191648 0.645 0.34747 -0.49212 -0.798175 
0.115326 0.191648 0.645 0.269922 -0.515323 -0.813378 
-0.0265106 0.183454 0.557 0.533332 -0.547984 -0.644415 
0.0294753 0.288653 0.536 0.575502 -0.572887 -0.583608 
0.00661781 0.192144 0.565 0.413306 0.238844 -0.87871 
-0.0257015 0.18289 0.558 0.192953 -0.71254 -0.674578 
-0.0408192 0.262888 0.542 -0.176138 -0.975802 -0.129561 
-0.0500533 0.207302 0.541 -0.410655 -0.277182 -0.868638 
-0.0278446 0.188494 0.551 0.659276 -0.298227 -0.690229 
-0.048573 0.231863 0.543 0.0613495 0.539015 -0.840059 
-0.00212498 0.29283 0.522 0.218597 0.0154003 -0.975694 
-0.00755631 0.269454 0.538 0.447051 -0.81696 -0.364309 
0.0737606 0.238268 0.588 0.194566 -0.750779 -0.631249 
0.0092913 0.229484 0.552 0.24419 -0.321822 -0.914769 
0.0745998 0.275614 0.579 0.4134 -0.510989 -0.753652 
-0.0155665 0.239499 0.547 -0 -0 -1 
-0.0286383 0.270297 0.538 -0.276709 -0.817647 -0.504862 
0.114798 0.328253 0.596 0.885143 -0.405231 -0.228715 
0.0570358 0.207469 0.598 0.293416 -0.835085 -0.465338 
0.0321347 0.2001 0.584 0.367923 -0.880776 -0.298105 
0.00311218 0.195581 0.562 0.742106 -0.262901 -0.616572 
-0.00415816 0.175283 0.571 0.42322 -0.342098 -0.83896 
0.0497396 0.278201 0.549 0.263071 -0.493463 -0.829028 
-0.0479442 0.293648 0.522 -0.418558 -0.750444 -0.51151 
0.0583091 0.308799 0.539 0.65936 -0.281543 -0.697121 
-0.0599257 0.170287 0.566 0.13429 -0.15233 -0.979164 
-0.0553742 0.170004 0.565 -0.278262 -0.302023 -0.911785 
0.0757082 0.191603 0.624 0.463217 -0.537379 -0.704737 
0.0890912 0.21179 0.614 0.573772 -0.457034 -0.679636 
-0.051054 0.170287 0.566 0.206686 -0.13347 -0.969261 
-0.0501669 0.170287 0.566 -0 -0 -1 
0.0906433 0.290869 0.604 0.414771 -0.302226 -0.858268 
-0.0492797 0.170287 0.566 -0 -0 -1 
0.0216523 0.213038 0.564 0.449069 -0.0711508 -0.89066 
-0.0466182 0.170287 0.566 -0 -0 -1 
-0.0439567 0.170287 0.566 0.208039 -0.133169 -0.969013 
-0.0430695 0.170287 0.566 -0.0375081 -0.177022 -0.983492 
-0.0421824 0.170287 0.566 0.0430613 -0.420763 -0.906148 
-0.0412952 0.170287 0.566 0.219676 -0.294965 -0.929913 
-0.040408 0.170287 0.566 -0.0157445 -0.451084 -0.892343 
-0.0395209 0.170287 0.566 0.210618 -0.472394 -0.855853 
-0.0387196 0.17057 0.567 0.210818 -0.471887 -0.856084 
-0.0378309 0.17057 0.567 -0.0149426 -0.450703 -0.892549 
-0.0369422 0.17057 0.567 -0.0146613 -0.450726 -0.892542 
-0.0360534 0.17057 0.567 -0.0143904 -0.450749 -0.892535 
-0.0351647 0.17057 0.567 -0.226323 -0.452882 -0.862367 
-0.0341979 0.170287 0.566 -0.0147946 -0.50115 -0.865234 
-0.0064302 0.194803 0.557 0.42595 -0.687509 -0.58813 
-0.0324235 0.170287 0.566 -0.225865 -0.453781 -0.862014 
-0.0306492 0.170287 0.566 -0.22089 -0.128051 -0.966856 
-0.029762 0.170287 0.566 -0 -0 -1 
-0.0288749 0.170287 0.566 -0 -0 -1 
-0.0279877 0.170287 0.566 -0 -0 -1 
-0.0271005 0.170287 0.566 0.10092 -0.180058 -0.978465 
-0.0262134 0.170287 0.566 0.0198501 -0.178044 -0.983822 
-0.0253262 0.170287 0.566 -0.0175936 -0.296228 -0.954955 
-0.0191675 0.17057 0.567 0.2144 -0.468097 -0.857274 
-0.01739 0.17057 0.567 0.0857676 -0.200047 -0.976025 
-0.0147238 0.17057 0.567 -0 -0 -1 
-0.0129463 0.17057 0.567 0.181475 -0.406231 -0.895569 
-0.0120576 0.17057 0.567 0.215023 -0.578442 -0.786874 
0.0930688 0.267807 0.601 0.607763 -0.399349 -0.6864 
-0.0103159 0.170854 0.568 0.452266 -0.303999 -0.838475 
-0.00942558 0.170854 0.568 0.404522 -0.376899 -0.833252 
0.0560134 0.279667 0.552 0.421484 -0.0201127 -0.906613 
-0.00856791 0.171137 0.569 0.530471 -0.301694 -0.7922 
-0.00507952 0.171986 0.572 0.257304 -0.255471 -0.931949 
-0.00418295 0.171986 0.572 0.548008 -0.415864 -0.725771 
-0.047403 0.225559 0.54 0.0907175 0.443235 -0.891803 
-0.00330961 0.172269 0.573 0.541778 -0.181906 -0.820602 
-0.00151333 0.172269 0.573 0.337749 -0.545064 -0.767353 
0.00115031 0.172836 0.575 0.544059 -0.372377 -0.751888 
0.00205158 0.172836 0.575 0.537457 -0.180365 -0.823777 
0.0029406 0.173119 0.576 0.660795 -0.385566 -0.643963 
0.00653401 0.173969 0.579 0.38753 -0.54676 -0.742209 
-0.0396639 0.190099 0.548 -0.589009 -0.375799 -0.715433 
0.00925535 0.174252 0.58 0.619594 -0.456061 -0.638836 
0.0313135 0.283115 0.54 0.270477 -0.449426 -0.851386 
0.0110754 0.174535 0.581 0.263201 -0.572539 -0.776482 
0.0119861 0.174535 0.581 0.113664 -0.745801 -0.6564 
0.0138075 0.174535 0.581 0.153765 -0.710399 -0.686797 
0.0284732 0.179046 0.584 0.211533 -0.55639 -0.803545 
-0.0292128 0.239935 0.546 0.0166834 0.254113 -0.967031 
0.0156385 0.174818 0.582 0.124279 -0.590795 -0.797193 
0.0165395 0.174535 0.581 0.124193 -0.59069 -0.797284 
0.017463 0.174818 0.582 -0.122481 -0.592651 -0.796092 
0.0192715 0.174535 0.581 0.00147264 -0.619366 -0.785101 
0.0258079 0.176234 0.587 0.151521 -0.171997 -0.973375 
0.026728 0.176234 0.587 0.104388 -0.171107 -0.979707 
0.027648 0.176234 0.587 0.178822 -0.384376 -0.905692 
0.0285681 0.176234 0.587 0.209816 -0.552767 -0.80649 
0.0295214 0.176517 0.588 0.494673 -0.505501 -0.706942 
0.030443 0.176517 0.588 0.494323 -0.50536 -0.707287 
0.031401 0.176801 0.589 0.274401 -0.677603 -0.682318 
0.0323243 0.176801 0.589 0.358213 -0.598241 -0.716792 
0.0351365 0.177084 0.59 0.492076 -0.502736 -0.710716 
0.0361055 0.177367 0.591 0.608618 -0.409643 -0.679542 
0.0430311 0.179633 0.599 0.832895 0.106089 -0.543167 
0.0440267 0.179916 0.6 0.708066 -5.74764e-005 -0.706146 
0.0481034 0.181332 0.605 0.536276 -0.210526 -0.817366 
0.0490517 0.181332 0.605 0.605091 -0.114185 -0.787925 
0.0500662 0.181615 0.606 0.701448 0.000138503 -0.71272 
0.0521044 0.182181 0.608 0.668309 -0.0558636 -0.741783 
-0.0323238 0.224658 0.542 -0.0108351 -0.560516 -0.828073 
0.0531282 0.182464 0.609 0.498674 -0.185959 -0.846607 
